ply
format ascii 1.0
element vertex 727
property float x
property float y
property float z
property float nx
property float ny
property float nz
property uchar diffuse_red
property uchar diffuse_green
property uchar diffuse_blue
end_header
-5.79489 8.34296 7.44041 0.0291047 -0.973433 -0.227116 219 208 198
-5.64715 8.41678 6.83837 0.0321975 -0.951941 -0.304584 233 225 221
-5.57006 8.32026 7.35327 0.747222 -0.368178 -0.553266 213 208 203
-6.4977 8.365 7.13303 0.0275597 -0.997205 0.0694509 223 220 214
-6.41821 8.47628 6.6014 0.533666 -0.808604 0.247711 193 178 164
-6.09632 8.46675 7.12441 0.155201 -0.966177 -0.205947 227 218 211
-5.60531 8.35768 7.30396 0.563867 -0.815277 -0.131821 194 186 178
-5.98655 8.42806 7.23245 0.0549776 -0.958241 -0.280626 219 216 213
-5.87671 8.44283 7.19365 0.236794 -0.969438 0.0641752 225 216 210
-5.85575 8.43221 7.18346 0.188109 -0.952511 -0.239453 217 208 202
-5.92431 8.44407 7.15947 0.00391468 -0.99901 0.044309 163 160 157
-5.93226 8.43651 7.13554 0.0301964 -0.985553 -0.166651 202 197 192
-5.98891 8.44253 7.10812 0.0196471 -0.995748 -0.0899973 188 177 167
-6.2768 8.34126 7.0041 0.421457 -0.819044 0.389283 229 224 218
-6.1332 8.4087 6.8799 0.312062 -0.946306 0.0843965 218 212 208
-6.1487 8.41324 6.8318 0.0266724 -0.993919 -0.106836 222 215 209
-6.18742 8.40117 6.80606 0.271047 -0.962463 -0.0140878 217 206 198
-6.13591 8.4026 7.41961 0.485155 -0.592224 0.643347 248 244 242
-6.25238 8.41516 6.77237 0.0262887 -0.987636 -0.154547 197 189 182
-6.47214 8.38786 6.93882 0.0251919 -0.997684 0.0631804 245 243 241
-6.3801 8.38558 6.98168 0.00806984 -0.998728 -0.0497669 242 238 235
-6.36666 8.4566 6.69427 0.277969 -0.252237 -0.926882 202 200 195
-5.62909 8.42127 6.73521 0.16128 -0.874406 0.457605 222 212 201
-6.36623 8.45642 6.69704 0.322444 -0.175306 -0.930214 195 193 189
-6.37661 8.445 6.66298 0.427763 -0.641973 -0.636309 224 213 201
-5.61193 8.41278 6.68006 0.04186 -0.990083 0.134102 218 214 209
-6.38831 8.36495 6.97026 0.347927 -0.828683 0.438443 250 249 247
-6.34497 8.36341 7.02626 0.0193315 -0.998873 0.0433607 193 186 178
-5.83346 8.48692 6.64727 0.431421 -0.836742 0.337253 217 208 199
-6.1332 8.4087 6.8799 0.312062 -0.946306 0.0843965 218 212 208
-5.76305 8.34058 7.46779 0.244039 -0.446012 -0.861115 242 238 234
-6.24603 8.33267 7.36421 0.567684 -0.772366 0.284932 209 206 207
-5.55618 8.36707 7.29912 -0.0300454 -0.993308 -0.111521 248 246 243
-6.25703 8.38201 7.16837 0.091319 -0.994592 -0.0494734 205 196 188
-6.16999 8.36704 6.9984 0.516407 -0.390508 -0.76212 168 162 156
-6.28398 8.39433 7.23753 0.725607 -0.68805 -0.00901979 174 165 154
-6.18188 8.37461 7.12886 0.039414 -0.987747 -0.151007 217 210 203
-6.19554 8.40165 7.16891 0.473759 -0.878312 -0.0641831 177 167 159
-6.05641 8.43678 7.3831 0.659448 -0.730188 0.178759 228 223 220
-6.13283 8.4154 7.31341 0.542837 -0.478362 0.690288 185 179 174
-6.19518 8.38084 6.93291 0.561667 -0.818539 0.12052 229 224 220
-6.31306 8.41399 7.48584 0.353313 -0.750773 0.558131 165 158 147
-6.25742 8.39298 6.90627 0.00522766 -0.999939 -0.00975479 224 218 214
-5.97476 8.41941 7.43567 0.448958 -0.86225 0.234438 210 196 186
-6.38531 8.42967 6.84681 0.037617 -0.989966 0.136209 237 233 231
-6.22631 8.3841 6.88254 0.0430754 -0.987417 -0.152158 217 213 210
-6.49627 8.4444 6.8893 0.202484 -0.695716 -0.689187 208 193 178
-6.40301 8.41899 6.91977 0.0171937 -0.844483 -0.535307 199 186 177
-6.40167 8.4182 6.91948 0.0223247 -0.8292 -0.558506 199 186 177
-6.40167 8.4182 6.91948 0.0223247 -0.8292 -0.558506 199 186 177
-6.42104 8.38212 6.91571 0.0706238 -0.970498 0.230533 204 195 190
-6.22606 8.34981 7.40063 0.154194 -0.904595 0.397406 177 175 174
-6.25977 8.37388 6.93934 0.386436 -0.903205 0.186783 208 198 191
-6.19824 8.3622 6.96597 0.666539 -0.69112 0.279426 208 200 194
-6.1008 8.43719 6.9671 0.171565 -0.971846 0.161498 189 177 167
-6.20907 8.34841 6.99806 0.681411 -0.681593 0.266663 226 221 217
-6.44738 8.41476 6.747 0.0509376 -0.980742 0.188551 204 198 192
-6.16717 8.34352 7.028 0.25192 -0.690167 -0.678384 210 205 202
-6.35429 8.37211 6.94087 0.548441 -0.782104 0.295847 238 230 227
-6.47875 8.41483 6.75282 0.0439423 -0.990562 -0.129828 219 211 203
-5.99748 8.40966 7.34416 0.0192245 -0.999809 -0.00357719 213 209 206
-6.48817 8.44927 6.82757 0.167972 -0.984459 0.051249 191 185 179
-6.36635 8.4055 6.69508 0.378632 -0.692471 -0.614102 203 192 187
-6.39383 8.42147 6.67288 0.375411 -0.701962 -0.60524 145 133 124
-6.42072 8.4201 6.66482 0.388789 -0.689417 -0.611186 96 87 78
-6.45095 8.43298 6.64753 0.546216 -0.446369 -0.708804 115 107 95
-6.48904 8.43002 6.60239 0.410106 -0.903994 -0.120859 164 156 146
-6.13513 8.45781 7.10821 0.214754 -0.974523 0.064699 163 152 143
-6.15561 8.40203 7.00148 0.710795 -0.652702 -0.262205 85 80 73
-6.17941 8.39631 6.96966 0.680664 -0.710615 -0.178111 185 182 174
-5.76235 8.35295 7.32324 0.264767 -0.769052 0.58177 248 247 246
-5.76235 8.35295 7.32324 0.264767 -0.769052 0.58177 248 247 246
-6.2534 8.39084 6.88309 0.0686823 -0.968285 0.240224 226 221 217
-6.3446 8.42543 6.80761 0.00411078 -0.999941 -0.0100197 212 209 209
-6.3446 8.42543 6.80761 0.00411078 -0.999941 -0.0100197 212 209 209
-5.54669 8.35917 7.27906 -0.0432567 -0.982135 -0.183139 245 242 239
-6.33814 8.42188 6.80855 0.0171539 -0.996498 -0.0818391 209 207 207
-6.18626 8.34441 7.09226 0.113259 -0.992574 0.0443664 190 183 177
-6.43735 8.36475 7.31736 0.317431 -0.897281 -0.306798 227 226 225
-6.18666 8.34495 7.0317 0.312638 -0.931768 -0.184569 214 209 205
-6.47625 8.37127 7.36602 0.189024 -0.683606 -0.704948 215 208 202
-6.11763 8.41494 7.08722 0.538926 -0.842219 -0.0149983 180 173 167
-6.02707 8.43929 7.27398 0.6048 -0.4234 0.6745 209 207 205
-6.36582 8.33306 7.3459 0.072892 -0.977075 0.200027 235 232 230
-5.93638 8.40926 7.30309 0.0165092 -0.995375 0.0946376 219 214 210
-6.36666 8.41639 6.78418 0.0416601 -0.98724 0.153693 222 217 213
-5.57211 8.30567 7.45593 0.485786 -0.60023 0.635402 230 224 218
-6.48608 8.4059 6.66439 0.258452 -0.871124 -0.417547 130 123 114
-6.40837 8.39786 6.71248 0.159632 -0.965169 -0.207285 205 195 191
-6.42068 8.40433 6.74119 0.0305448 -0.996158 0.082073 197 190 185
-6.36666 8.41639 6.78418 0.0416601 -0.98724 0.153693 222 217 213
-6.32451 8.37741 6.97258 0.0282004 -0.993183 -0.113101 227 219 214
-6.35443 8.3267 7.34607 0.285824 -0.87431 0.392283 236 233 230
-6.19057 8.33771 7.08048 0.0253635 -0.996679 0.0773805 195 189 183
-5.57211 8.30567 7.45593 0.485786 -0.60023 0.635402 230 224 218
-5.67558 8.42501 6.88594 0.290721 -0.936843 -0.194438 233 222 214
-5.59525 8.41691 6.63351 -0.00901781 -0.998839 0.0473273 206 194 184
-5.58588 8.41384 6.68013 -0.00879841 -0.998874 0.0466265 211 204 195
-5.57489 8.40705 6.67731 0.0107257 -0.989731 0.142537 211 204 198
-5.52659 8.40473 6.716 0.353016 -0.171101 -0.919839 251 249 247
-5.56428 8.42459 6.99803 0.0153394 -0.989386 0.144498 199 183 173
-5.58344 8.42977 6.99815 -0.00494713 -0.998499 0.0545499 196 180 170
-5.59873 8.40735 6.90396 0.181736 -0.981218 -0.0646731 250 249 247
-5.67735 8.41797 6.83502 0.140308 -0.971259 0.192276 229 219 214
-6.22166 8.39977 7.2902 0.611679 -0.242365 -0.753066 118 116 109
-5.93453 8.48972 6.72885 0.308367 -0.92963 -0.20174 106 96 90
-5.90682 8.4506 6.68996 0.75093 -0.0887007 0.654397 114 104 89
-5.93176 8.45118 6.68739 0.650755 -0.274317 0.708003 135 125 111
-5.90588 8.43376 6.65 0.589668 -0.741081 -0.321077 133 124 114
-5.90581 8.43366 6.64969 0.589077 -0.742717 -0.318371 133 124 114
-5.93656 8.43497 6.61866 0.567673 -0.793432 -0.219575 135 125 117
-5.60538 8.43802 7.01381 -0.0296009 -0.995118 -0.0941531 202 190 181
-5.63584 8.42629 6.9638 0.00242604 -0.995415 0.0956209 185 169 160
-6.39136 8.33282 7.27842 0.0430325 -0.985091 0.166564 208 202 197
-5.87781 8.49692 6.77528 0.190672 -0.850222 0.49068 215 204 194
-5.75888 8.45237 6.7534 -0.00946343 -0.99968 0.0234641 225 210 197
-6.02831 8.40664 6.65867 0.0107131 -0.999495 -0.0299283 157 157 157
-6.0269 8.43952 6.74886 -0.030981 -0.970011 -0.241079 147 138 129
-6.05949 8.44379 7.43591 0.218504 -0.705412 -0.674277 204 194 184
-6.02947 8.45814 6.78579 0.434599 -0.615104 -0.657853 133 121 110
-6.00088 8.45801 6.81676 0.732153 -0.38773 -0.560015 157 148 143
-6.00017 8.45832 6.81622 0.716922 -0.411327 -0.562879 156 147 142
-5.89313 8.44165 6.92166 0.133009 -0.983655 -0.121371 231 221 213
-5.81076 8.42456 6.94373 0.140253 -0.968319 -0.20661 235 229 223
-6.13893 8.42428 7.36988 0.408278 -0.897736 -0.165467 181 172 170
-5.73009 8.43325 7.02308 0.176403 -0.97984 0.0937856 191 183 165
-5.71741 8.43104 7.07764 0.039692 -0.980641 0.191747 219 213 210
-5.84507 8.48045 6.71634 0.164817 -0.923235 0.347091 222 209 197
-5.87913 8.47858 6.68867 0.835117 -0.529449 0.149205 181 169 156
-5.87247 8.45645 6.64967 0.579896 -0.777305 -0.243962 195 184 170
-5.89279 8.45157 6.61564 0.547827 -0.79604 -0.257305 175 163 152
-5.9355 8.45488 6.58971 -0.0194303 -0.945906 -0.323859 205 193 178
-6.16221 8.38424 7.24602 0.578911 -0.100132 -0.809219 141 140 136
-6.15422 8.40306 7.33477 0.384547 -0.911674 -0.144823 137 133 128
-5.76325 8.42579 6.97278 0.161095 -0.885584 0.435648 228 221 206
-6.17118 8.39686 6.74735 0.0388071 -0.961975 0.270367 212 205 198
-5.60988 8.43097 6.51637 0.578642 0.152325 -0.801231 228 226 223
-5.51734 8.39331 6.53654 -0.0095858 -0.999635 0.0252706 235 229 227
-5.98422 8.41925 6.68793 0.889758 -0.39743 0.224453 127 126 126
-5.9768 8.45293 6.74413 0.817024 -0.125779 0.562717 158 142 125
-5.51734 8.39331 6.53654 -0.0095858 -0.999635 0.0252706 235 229 227
-5.51734 8.39331 6.53654 -0.0095858 -0.999635 0.0252706 235 229 227
-5.94721 8.44508 6.52135 0.127987 -0.870014 0.476125 190 175 162
-5.63697 8.3342 7.33547 0.052266 -0.938955 0.340047 233 229 226
-6.32059 8.38294 7.44234 0.131767 -0.831798 0.539211 228 224 220
-5.97649 8.48739 6.8181 0.588355 -0.801152 -0.109513 145 130 118
-5.63652 8.33395 7.33546 0.0527253 -0.938004 0.342592 233 229 226
-6.06139 8.41498 6.52951 0.0731842 -0.938793 0.336618 181 173 167
-5.83753 8.44813 6.89244 0.224951 -0.927792 -0.297656 212 199 189
-5.74497 8.4262 6.91368 0.265727 -0.939069 -0.218034 229 218 206
-5.70519 8.45941 7.05588 0.00984731 -0.994971 -0.0996753 190 183 175
-5.56145 8.40445 7.07542 0.00439939 -0.967609 -0.252415 200 190 185
-6.06139 8.41498 6.52951 0.0731842 -0.938793 0.336618 181 173 167
-6.06139 8.41498 6.52951 0.0731842 -0.938793 0.336618 181 173 167
-5.99236 8.47975 6.7844 0.595985 -0.711783 -0.371709 160 144 128
-5.64903 8.42894 6.96269 0.000850141 -0.997447 0.0714097 186 172 162
-5.65178 8.39916 6.92812 0.280207 -0.939862 -0.195303 218 210 199
-5.72761 8.4189 6.90772 0.306717 -0.937832 -0.162469 228 216 204
-5.70834 8.41629 6.86147 0.369596 -0.920209 -0.128895 213 200 190
-5.76853 8.44971 6.86616 0.621187 -0.773955 -0.122962 208 195 185
-5.97331 8.4962 6.75827 0.168168 -0.872393 0.458965 152 138 131
-5.9614 8.42504 6.65514 0.777271 -0.628987 0.0150243 140 138 138
-5.95881 8.42628 6.65241 0.775573 -0.59994 -0.196363 136 134 134
-5.98357 8.42045 6.62157 0.718219 -0.689007 -0.0971108 143 142 141
-5.7569 8.45818 6.55026 0.0591915 -0.881905 0.467696 194 177 160
-6.12401 8.44471 7.39322 0.38068 -0.908728 -0.171159 244 240 239
-6.18334 8.44065 6.54312 0.00163627 -0.854105 -0.520098 236 231 227
-5.56287 8.33747 7.37898 0.365196 -0.922668 0.123758 182 174 164
-6.0602 8.40091 6.56169 0.131222 -0.833262 -0.53708 179 178 181
-6.04546 8.4237 6.59848 0.23881 -0.614203 -0.752146 187 185 188
-5.63597 8.42931 6.5583 0.455465 -0.726428 0.51464 248 244 241
-5.5155 8.40672 6.64973 0.309948 -0.949312 0.052333 232 223 218
-6.22977 8.39143 7.4563 0.131014 -0.830249 0.541776 185 177 167
-5.71746 8.4618 6.58447 0.0769031 -0.84776 0.524775 226 211 198
-5.70652 8.4556 6.58484 0.0373349 -0.926281 0.374979 226 210 197
-5.85744 8.47575 6.84763 0.284106 -0.276405 -0.918087 231 222 214
-5.79725 8.43116 7.20496 -0.0198993 -0.991562 -0.128099 229 219 212
-5.65798 8.39436 7.2315 0.121127 -0.99243 0.0202542 211 206 205
-6.41789 8.47564 6.57797 0.784832 -0.618838 0.0328352 164 152 141
-6.34278 8.45976 6.62685 0.633348 -0.765176 0.115656 241 236 229
-6.29727 8.45777 6.63573 -0.00448927 -0.924764 -0.380516 229 228 223
-5.66371 8.42339 6.7247 0.104605 -0.921696 0.373543 237 231 222
-6.22294 8.41433 6.6483 0.0747411 -0.95759 0.27827 220 217 212
-6.09638 8.38026 6.71489 0.136186 -0.904291 0.404613 190 188 191
-6.09668 8.40346 6.76288 -0.0151519 -0.987798 -0.155002 168 162 164
-5.54307 8.38217 6.85178 0.109843 -0.967729 0.226794 242 239 237
-6.03613 8.4402 6.88122 0.132652 -0.884189 -0.447898 228 225 226
-5.99727 8.40756 6.88326 0.765579 -0.633745 0.110707 232 230 232
-6.04342 8.446 6.88919 0.14787 -0.864213 -0.480906 224 222 223
-5.94919 8.43696 6.94546 0.0476896 -0.974977 -0.217131 241 234 229
-5.83214 8.42395 7.08161 0.0237912 -0.991377 0.128861 201 195 166
-5.81584 8.44759 7.16073 0.303314 -0.94738 -0.102332 234 225 218
-5.69027 8.40586 7.1677 0.0187365 -0.992856 0.117838 228 221 213
-5.59492 8.37651 7.20862 0.0062208 -0.995669 0.0927571 231 225 221
-5.51322 8.44334 6.62827 0.00768745 -0.987664 -0.156398 227 221 215
-6.08462 8.41762 6.7807 -0.00362712 -0.99976 -0.0216153 166 158 159
-6.39968 8.47189 6.66748 0.144553 -0.665928 -0.731877 243 236 228
-6.24753 8.41702 6.6899 -0.00688788 -0.998172 -0.0600464 219 213 207
-6.27026 8.37862 7.29136 0.460032 -0.352552 -0.81491 170 165 157
-6.21216 8.40123 6.69769 0.0694802 -0.963073 0.26012 220 215 213
-6.25908 8.4132 6.70678 0.0136705 -0.998503 0.0529656 212 204 199
-6.19286 8.40511 6.75484 0.152293 -0.958814 0.239755 197 189 182
-6.12597 8.41442 6.80071 0.0157939 -0.865927 -0.499921 236 228 228
-5.55335 8.45191 6.91009 -0.0382901 -0.946933 -0.319142 240 238 233
-5.55241 8.44097 6.90465 -0.0388315 -0.958651 -0.281923 241 238 234
-5.61872 8.4193 6.75032 0.0145189 -0.992195 -0.123852 218 205 192
-6.05533 8.39912 6.84645 0.101871 -0.994278 0.0321599 236 235 235
-6.06341 8.40351 6.84719 0.130231 -0.989474 0.0630953 236 235 235
-5.56988 8.41554 6.83177 0.00630078 -0.999856 -0.0157783 215 206 199
-5.59592 8.41109 6.8018 -0.00502056 -0.859656 -0.510848 235 225 215
-6.13588 8.45117 6.91276 0.12015 -0.900194 -0.418588 228 222 221
-6.07982 8.47318 6.99317 -0.0151175 -0.90365 -0.428005 191 181 170
-5.93343 8.44824 7.07068 -0.00200164 -0.999772 0.0212585 219 210 186
-5.84445 8.43289 7.13014 0.0136636 -0.998989 0.0428245 218 210 203
-5.63822 8.42561 6.80536 0.0635405 -0.957947 0.279821 236 223 214
-6.06812 8.4085 7.49914 0.499515 -0.814075 0.296255 237 232 226
-6.04784 8.39846 6.84541 0.147977 -0.981362 -0.122601 236 234 235
-5.84187 8.49763 6.68617 0.367097 -0.696219 -0.616861 237 227 219
-5.82631 8.4224 7.00228 0.0463907 -0.977657 0.205021 222 212 186
-5.83652 8.47755 6.64881 0.56443 -0.648026 -0.511353 220 211 203
-5.86398 8.47847 6.61455 0.769342 -0.63678 -0.0512213 213 202 197
-5.77974 8.42764 7.05267 0.335494 -0.933546 0.126239 211 206 188
-5.88256 8.46704 6.58382 0.783664 -0.606589 0.13387 200 193 185
-5.92109 8.46783 6.55697 0.029871 -0.982422 -0.18427 246 241 234
-5.85291 8.45926 6.51171 0.0918127 -0.926949 0.363779 213 205 195
-5.76955 8.42812 7.09954 0.216319 -0.963308 -0.158884 219 208 198
-6.39044 8.462 6.51318 0.027011 -0.990265 0.136551 207 197 184
-5.61926 8.43133 6.63515 -0.00316882 -0.999984 0.00468627 208 196 185
-5.51863 8.32392 7.1232 -0.00446534 -0.99975 0.021892 243 240 237
-5.66058 8.42802 6.64412 -0.0205377 -0.998832 -0.0437325 236 229 225
-6.11768 8.39372 6.59062 0.130241 -0.981411 -0.140957 203 201 200
-5.6279 8.4224 6.62944 0.00851074 -0.831937 -0.554805 215 204 195
-5.52659 8.42081 6.96661 -0.0195281 -0.999797 -0.00501172 191 178 168
-5.52714 8.39189 6.92259 0.0212321 -0.987834 0.154055 243 242 240
-5.55313 8.41426 6.9315 -0.00936905 -0.999687 0.0232012 245 244 242
-6.04709 8.38277 6.61632 0.133322 -0.975567 -0.174623 162 160 162
-5.73551 8.46602 6.59666 0.302273 -0.867774 0.394461 228 216 207
-6.4116 8.49403 6.54574 0.0438046 -0.822718 -0.566759 166 151 144
-6.32847 8.46696 6.56538 0.308338 -0.859962 0.406685 235 230 225
-6.28165 8.45757 6.57937 -0.0201566 -0.980049 -0.19773 224 224 220
-6.30469 8.45561 6.58663 0.534661 -0.749056 0.391221 233 232 228
-6.17371 8.40864 6.59894 0.0373696 -0.984566 -0.170979 212 211 207
-6.17371 8.40864 6.59894 0.0373696 -0.984566 -0.170979 212 211 207
-6.08783 8.36558 6.6419 0.144126 -0.953043 -0.26634 189 188 186
-6.10584 8.42082 7.43922 0.659344 -0.574 0.485581 231 226 221
-5.54072 8.34585 7.35346 0.290333 -0.752872 -0.590669 178 168 158
-5.8999 8.43872 6.98061 -0.0326996 -0.981887 -0.186627 232 226 213
-6.08073 8.44724 7.16793 0.0338444 -0.989954 0.13728 226 215 207
-6.03603 8.37154 6.68213 0.0303009 -0.997291 -0.0670272 165 165 167
-6.15143 8.41341 7.0542 0.0384174 -0.986848 0.157021 164 159 155
-6.01459 8.39375 6.72408 0.0658701 -0.989103 -0.131668 118 116 116
-6.07062 8.41338 6.7536 -0.00112274 -0.999988 0.00467175 144 140 140
-6.07154 8.43254 6.7901 0.375144 -0.685185 -0.624331 181 173 170
-5.71306 8.443 6.71657 0.599826 -0.669581 0.438029 243 237 229
-5.75621 8.45475 6.67974 0.463756 -0.840606 0.279843 242 236 230
-6.03338 8.42643 6.81849 0.018292 -0.999209 0.0352949 227 223 224
-6.14159 8.37397 7.02806 0.745042 -0.184084 -0.641113 187 183 177
-5.66371 8.42339 6.7247 0.104605 -0.921696 0.373543 237 231 222
-6.26493 8.28901 7.30829 0.409361 -0.844252 -0.345921 183 182 183
-6.33272 8.29166 7.30237 0.150766 -0.936265 0.317297 216 209 203
-6.39967 8.38711 7.27676 0.157519 -0.421624 -0.892984 208 207 204
-6.18683 8.3785 7.42251 0.552332 -0.59346 0.585435 158 148 136
-6.2218 8.38616 7.45415 0.305919 -0.79561 0.522895 175 168 159
-6.45018 8.35257 7.43416 0.180172 -0.902602 0.390957 224 219 214
-6.15006 8.38355 7.36947 0.591668 -0.706771 0.38782 153 147 143
-6.23924 8.40238 7.23559 0.367239 -0.481781 -0.795627 151 146 140
-6.21222 8.39888 7.26959 0.521344 -0.203987 -0.828607 123 121 115
-6.18056 8.3816 7.28544 0.790447 -0.545155 -0.279283 120 116 111
-6.01644 8.41098 7.46646 0.0565001 -0.988001 0.143742 198 184 170
-5.95027 8.41406 7.44248 0.0182834 -0.990984 -0.132729 201 187 175
-6.11772 8.44874 7.35239 0.259949 -0.964462 -0.0473131 222 217 214
-6.00338 8.42373 7.28633 0.0322332 -0.983699 -0.176909 206 204 203
-5.97122 8.4318 7.37069 0.0760632 -0.99661 0.0313415 221 213 206
-5.94256 8.43929 7.36006 0.186288 -0.669861 -0.718737 247 243 239
-5.73288 8.31363 7.35272 0.334462 -0.776159 0.53452 218 209 202
-5.63113 8.30763 7.43336 0.461351 -0.654006 0.599526 229 224 220
-5.61502 8.29896 7.36485 0.347674 -0.788937 0.506656 247 246 244
-6.10448 8.45791 7.18413 0.0329631 -0.972172 -0.231937 229 217 208
-6.07969 8.45624 7.20605 0.0216911 -0.994628 -0.10121 239 232 227
-6.1629 8.45852 7.15835 0.32133 -0.934725 -0.151778 157 144 135
-6.18047 8.44786 7.12794 0.485902 -0.873371 -0.0334944 200 195 189
-6.18059 8.37664 7.05466 0.82812 -0.478324 -0.292274 212 207 204
-5.54982 8.40627 6.82253 0.609267 -0.759701 0.227262 226 220 217
-5.93213 8.40175 7.43504 0.0181431 -0.991987 -0.125028 203 190 178
-5.99969 8.43684 7.4095 -0.0157754 -0.858485 -0.512597 215 205 196
-5.63805 8.34567 7.49867 0.50011 -0.704353 -0.503763 180 175 167
-6.19803 8.41881 7.19934 0.620825 -0.737669 -0.265368 199 193 188
-6.16495 8.42118 7.22274 0.346916 -0.85135 -0.393513 222 217 215
-6.37028 8.34769 7.16744 0.1001 -0.917408 -0.385153 191 185 178
-6.49247 8.37257 7.0956 0.0400517 -0.993143 0.109828 223 221 218
-6.47692 8.35795 7.08159 0.0391607 -0.993606 0.10589 234 231 226
-5.92435 8.49521 6.88105 0.454595 -0.885125 0.0994875 220 210 200
-5.92671 8.47695 6.84582 0.625815 -0.776301 -0.0755853 222 209 198
-6.47062 8.36079 7.38919 0.322324 -0.907832 0.268231 222 214 209
-6.47062 8.36079 7.38919 0.322324 -0.907832 0.268231 222 214 209
-6.49291 8.35103 7.38259 0.700095 -0.647735 0.30051 173 162 154
-6.49971 8.34815 7.19694 0.0353356 -0.999374 -0.00182468 212 206 198
-5.55401 8.31386 7.42822 0.375773 -0.65065 0.659886 224 220 214
-6.19239 8.41561 7.45719 0.414342 -0.577447 0.703474 202 191 180
-6.26231 8.38849 7.48895 0.284178 -0.758997 0.585804 156 149 137
-6.2639 8.35476 7.43757 0.23467 -0.818506 0.524383 227 224 222
-6.47435 8.3809 7.49172 0.336561 -0.8838 0.324999 223 220 218
-6.49843 8.3624 7.32515 0.0715295 -0.977076 0.200513 185 173 161
-6.49843 8.3624 7.32515 0.0715295 -0.977076 0.200513 185 173 161
-6.42591 8.38365 7.4599 0.363736 -0.909711 0.200304 199 195 191
-6.42857 8.33666 7.21832 0.375761 -0.88274 -0.282088 162 154 142
-6.43735 8.36475 7.31736 0.317431 -0.897281 -0.306798 224 222 221
-6.32712 8.32861 7.37046 0.0649029 -0.981329 0.181055 232 228 226
-6.29515 8.34114 7.40885 0.517646 -0.851873 0.0797256 243 240 238
-6.49971 8.34815 7.19694 0.0353356 -0.999374 -0.00182468 212 206 198
-5.68527 8.43226 6.99278 0.152188 -0.879087 0.451713 205 190 175
-5.61241 8.31984 7.39673 0.819961 -0.413466 0.395867 244 242 240
-6.13077 8.44321 7.21712 0.215145 -0.729524 -0.649236 207 199 196
-6.12674 8.43767 7.20947 0.151514 -0.828632 -0.538899 203 194 190
-6.172 8.44198 7.18615 0.744631 -0.525914 -0.411023 168 158 152
-6.18367 8.43368 7.16899 0.626084 -0.299536 -0.719929 203 195 189
-6.19653 8.43712 7.15841 0.897636 -0.369459 -0.240313 217 210 205
-5.64112 8.3125 7.38074 0.570467 -0.662277 0.485753 246 245 242
-6.10156 8.42298 7.26423 0.564983 -0.126181 -0.815397 205 200 200
-6.13894 8.41954 7.24586 0.35803 -0.666177 -0.654234 242 241 241
-5.99064 8.4475 6.72474 0.667694 -0.233848 0.706753 145 136 127
-5.67811 8.42899 7.22283 0.618143 -0.343776 0.706906 232 225 222
-5.82359 8.43445 7.09849 0.892847 0.441123 0.0907457 216 204 193
-6.15627 8.36623 7.05474 0.741908 -0.66404 -0.092865 213 208 205
-6.10268 8.47064 7.12603 0.159995 -0.888007 0.431097 218 209 201
-5.76057 8.33601 7.40327 0.247368 -0.807519 0.535465 237 231 226
-6.35816 8.41047 6.78051 0.0569121 -0.975862 0.210841 219 215 210
-6.25748 8.38786 7.24691 0.54145 -0.192526 -0.818392 164 157 147
-5.98833 8.29871 7.44834 0.765665 0.448201 -0.461382 150 136 124
-6.21929 8.3406 7.39899 0.231786 -0.830348 0.506752 184 182 182
-6.42416 8.39388 7.21515 0.291647 -0.778621 0.5556 192 183 176
-6.3279 8.37231 7.47064 0.137309 -0.92767 0.347238 219 214 209
-6.3279 8.37231 7.47064 0.137309 -0.92767 0.347238 219 214 209
-6.32607 8.37028 7.46634 0.185157 -0.882446 0.432443 219 215 211
-6.33739 8.32084 7.38783 0.459728 -0.531894 0.711153 238 234 231
-6.40708 8.34509 7.42848 0.445354 -0.576795 0.684812 225 221 218
-6.03342 8.42923 6.93356 0.374095 -0.635021 0.675871 229 224 221
-5.56638 8.43862 6.87289 0.000816286 -0.760109 -0.649795 238 236 236
-5.9268 8.44754 7.31837 0.377194 -0.836561 -0.397353 228 225 224
-5.87665 8.43203 7.31245 -0.0452645 -0.924815 -0.377714 212 209 207
-5.64183 8.33117 7.3549 0.0817792 -0.963876 0.253488 237 236 234
-5.50725 8.34209 7.46922 0.0185644 -0.988362 0.150985 206 197 190
-6.01033 8.44091 7.13874 0.310824 -0.876895 -0.366665 221 211 204
-5.95308 8.44201 7.19813 0.299488 -0.947619 -0.111015 193 182 175
-5.92493 8.43141 7.2114 0.381044 -0.8563 -0.348647 217 204 195
-5.80529 8.4269 7.27723 -0.0325257 -0.979505 -0.198778 209 205 199
-5.5334 8.34888 7.412 0.506899 -0.633747 0.58431 169 157 142
-5.78067 8.47724 6.54168 0.395227 -0.613033 0.684095 211 195 182
-5.70582 8.42668 6.5198 0.188401 -0.826731 0.530113 210 195 187
-5.59448 8.33174 7.42839 0.83661 -0.410271 0.362989 232 229 226
-5.63889 8.384 7.28737 0.831797 0.437925 -0.34108 172 168 164
-5.97213 8.47666 7.12073 0.482297 -0.871284 0.0908542 219 215 203
-5.59823 8.36748 7.25132 0.0879833 -0.959412 -0.267934 180 177 174
-5.5885 8.37252 7.207 0.0025492 -0.99703 0.0769757 227 222 218
-5.53443 8.36512 7.23007 -0.0254785 -0.799382 -0.600282 242 237 233
-5.5022 8.36879 7.25672 0.124191 -0.951269 -0.282247 244 241 237
-5.54765 8.3903 7.21746 0.58336 -0.800254 0.138869 233 228 226
-5.98824 8.4458 6.87844 0.468959 -0.814283 -0.342081 159 154 149
-5.9528 8.44979 6.90176 0.26894 -0.936837 -0.223625 158 145 138
-5.77873 8.47 6.81736 0.144587 -0.889481 0.433494 224 217 211
-5.77873 8.47 6.81736 0.144587 -0.889481 0.433494 224 217 211
-5.8197 8.49449 6.82112 0.225521 -0.865804 0.446682 228 221 213
-5.96512 8.45697 6.84715 0.756151 -0.544076 -0.363615 140 130 120
-6.13819 8.41618 6.93185 0.203464 -0.92542 0.319689 181 176 169
-6.21134 8.37775 7.32052 0.497834 -0.0476009 -0.865965 153 148 139
-6.32092 8.3469 7.06879 0.00285614 -0.998768 -0.049546 207 203 202
-6.35443 8.3267 7.34607 0.285824 -0.87431 0.392283 236 233 230
-5.78521 8.34527 7.4558 0.531024 -0.62511 0.572058 227 219 211
-6.40748 8.36279 7.0065 0.218209 -0.975694 -0.02016 248 246 244
-6.4194 8.35589 6.99956 0.342378 -0.834297 0.432117 248 246 245
-6.43863 8.37087 6.98494 0.111472 -0.856138 -0.50458 249 247 246
-5.72167 8.3304 7.36692 0.614814 -0.637997 0.463641 249 246 243
-6.31901 8.37892 7.20143 0.0474229 -0.9869 0.154206 215 203 193
-6.39967 8.38711 7.27676 0.157519 -0.421624 -0.892984 207 206 203
-6.13909 8.4051 7.2742 0.729447 0.0212393 -0.683708 199 197 194
-6.20669 8.40082 7.22966 0.138185 -0.989476 0.0429265 157 154 150
-6.22255 8.39366 7.19932 0.104454 -0.992577 0.0622886 166 160 152
-6.01979 8.45035 7.18088 0.0136761 -0.996069 0.0875176 238 234 230
-5.89535 8.44613 7.27284 0.28283 -0.932007 -0.226651 224 216 209
-6.03689 8.46452 7.17722 0.0305999 -0.991764 -0.124367 230 225 221
-5.55243 8.35622 7.22726 -0.0273658 -0.995942 -0.0857359 214 208 205
-5.51061 8.36694 7.23324 0.296572 -0.947464 -0.119816 240 235 230
-6.26913 8.31718 7.32779 0.710946 -0.617703 -0.336153 172 170 172
-6.38346 8.41774 7.30123 0.03398 -0.994768 0.0963434 194 191 187
-6.35443 8.3267 7.34607 0.285824 -0.87431 0.392283 236 233 230
-5.95027 8.41406 7.44248 0.0182834 -0.990984 -0.132729 201 187 176
-6.46766 8.35138 7.01568 0.0361919 -0.99495 0.0936156 251 250 248
-6.42147 8.3317 7.02463 0.198155 -0.866647 0.457884 250 248 246
-5.91276 8.39251 7.49071 0.0462336 -0.9844 0.169763 202 187 175
-6.40369 8.35793 7.05318 0.393579 -0.917822 -0.0519387 212 210 206
-6.28755 8.36407 7.1317 0.0294259 -0.994124 0.104175 210 206 201
-6.41256 8.36033 7.10238 0.0452485 -0.990489 0.129942 196 196 197
-4.52589 8.38569 6.49281 0.278264 -0.876002 0.393942 205 200 194
-4.55996 8.37836 6.44687 -0.0240527 -0.997892 0.0602733 242 240 238
-4.70258 8.41746 6.38569 0.103877 -0.990962 0.0848808 235 229 226
-4.73071 8.44527 6.27983 -0.0163931 -0.969664 0.24389 228 222 218
-4.78586 8.44752 6.35959 -0.0506297 -0.998505 -0.0206202 169 159 149
-4.63591 8.47342 5.78527 0.210392 -0.931627 -0.296322 245 242 240
-4.57796 8.47814 5.86249 0.026514 -0.996302 0.0817228 232 226 221
-4.53842 8.48526 5.94528 0.270384 -0.947184 0.172438 222 220 217
-4.59399 8.38401 6.38568 0.00904465 -0.915098 0.403131 238 233 230
-4.81394 8.42513 6.28756 0.470924 -0.86245 0.185502 162 159 157
-4.8078 8.40734 6.25004 0.636807 -0.763621 0.106578 146 144 143
-4.84839 8.41146 6.20064 0.345212 -0.933986 -0.0921895 136 135 136
-4.94932 8.43507 6.13825 0.189341 -0.952118 -0.240044 214 210 206
-4.95241 8.43726 6.12959 0.190911 -0.973213 -0.1281 216 211 207
-5.02378 8.45108 6.10705 -0.0140694 -0.998547 0.0520207 182 173 167
-5.13541 8.48939 6.03323 -0.054458 -0.981457 -0.183782 219 205 192
-5.18177 8.49049 6.00926 0.292017 -0.914906 -0.2787 225 215 205
-5.14895 8.43727 5.95519 0.487377 -0.837545 0.246944 233 235 233
-5.21645 8.38996 5.52722 0.916295 0.317055 -0.244702 234 229 225
-5.13762 8.4342 5.97306 0.583513 -0.7669 -0.267165 221 220 216
-5.26083 8.48907 5.88504 -0.00623545 -0.964568 0.263761 222 220 219
-4.81798 8.40823 6.23676 0.434693 -0.871593 0.226645 159 157 156
-4.77978 8.41156 6.20993 0.518402 -0.72518 -0.453182 109 104 101
-4.80013 8.4281 6.22027 0.238104 -0.891897 0.384482 105 101 98
-4.82534 8.42301 6.17168 0.191156 -0.947419 0.256624 119 115 110
-4.78695 8.43595 6.26293 0.160275 -0.922761 0.350462 81 77 75
-4.90071 8.4273 6.15307 0.40796 -0.784588 -0.466894 156 155 154
-4.78063 8.45134 6.31334 0.0473197 -0.940186 0.337359 229 220 216
-4.95091 8.43569 6.07294 -0.0132124 -0.999894 0.00610252 234 229 224
-4.77621 8.46051 6.3389 0.142961 -0.885438 0.442223 240 237 232
-4.53569 8.36873 6.40669 0.351757 -0.928908 -0.115746 220 214 210
-4.52873 8.38934 6.45074 0.400663 -0.892769 -0.205993 232 227 224
-4.93814 8.42781 6.07471 0.0169972 -0.964372 0.264004 233 228 224
-5.1032 8.456 6.23342 0.00775835 -0.963719 0.266805 156 139 122
-5.06691 8.45457 6.29843 0.0410626 -0.936738 0.347615 196 185 175
-4.97448 8.43258 6.03757 0.0352858 -0.855633 0.516378 238 230 224
-5.0031 8.44694 6.06528 0.029265 -0.981911 -0.187066 188 179 170
-4.80745 8.42879 6.42572 0.0180879 -0.910161 0.413859 241 236 231
-4.76316 8.42292 6.49748 -0.00136049 -0.948371 0.317159 206 195 185
-5.03002 8.40715 5.94537 0.310851 -0.900309 -0.304656 158 159 153
-5.10312 8.43686 5.93944 -0.00359032 -0.980007 0.198928 203 207 205
-4.64004 8.39638 6.42234 -0.0157344 -0.972961 0.230431 250 247 245
-5.10861 8.45168 6.3123 0.0282647 -0.949342 0.31297 215 206 199
-5.10706 8.42926 5.92701 -0.018507 -0.996175 0.0854004 229 233 232
-5.24055 8.49454 5.8665 -0.025749 -0.997202 0.0701785 218 212 212
-5.10861 8.45168 6.3123 0.0282647 -0.949342 0.31297 215 206 199
-4.93037 8.42962 6.07836 -0.0386528 -0.998433 0.0404721 238 236 234
-5.1675 8.45989 6.10961 0.0548833 -0.965689 -0.253835 219 206 195
-5.28949 8.49181 6.02335 0.0327913 -0.802403 -0.595881 236 230 226
-5.23753 8.45659 5.98451 0.604437 -0.783459 -0.14439 220 214 209
-4.8757 8.42548 6.37219 0.0117399 -0.987617 -0.156444 235 232 229
-4.97842 8.44276 6.3475 0.474317 -0.86851 0.143923 224 217 212
-5.4965 8.46242 6.43249 0.112835 -0.624372 -0.772934 228 220 216
-4.9525 8.44189 6.3397 0.0326418 -0.952373 -0.303184 229 224 221
-5.01252 8.45712 6.31142 0.227242 -0.969314 -0.0937648 209 199 192
-5.13512 8.47116 6.20954 0.0437146 -0.94766 0.316274 147 130 113
-5.145 8.45557 6.17629 -0.0164977 -0.990614 0.135686 161 148 132
-5.25569 8.48942 6.09617 0.36589 -0.859176 0.357688 220 205 194
-5.35365 8.49998 6.05138 -0.00475782 -0.999812 0.0187921 219 209 198
-4.58264 8.46594 5.78052 0.128404 -0.953084 -0.274123 253 252 251
-4.55504 8.48831 5.70041 0.302342 -0.353288 -0.885312 232 225 223
-4.52733 8.48585 5.99581 -0.0344007 -0.969766 -0.2416 234 222 225
-4.93397 8.45356 6.4423 -0.0137753 -0.998446 -0.0540072 252 252 250
-4.93455 8.44303 6.41881 -0.042757 -0.999085 -0.000203505 238 233 231
-4.95649 8.43644 6.38933 0.183515 -0.820659 -0.541148 218 209 204
-4.95401 8.4373 6.38765 0.0609198 -0.996642 0.0547207 219 211 205
-5.03675 8.43739 6.33218 0.410022 -0.910009 0.0613658 198 189 183
-5.20603 8.48808 6.24425 0.0469937 -0.946639 0.318851 175 156 138
-5.22867 8.45425 6.16941 -0.024808 -0.997096 0.0720072 202 198 188
-5.29073 8.49367 6.13317 0.517635 -0.820292 0.243259 212 205 198
-5.44452 8.49765 6.01101 0.051021 -0.964926 0.257518 164 154 145
-5.47225 8.48236 5.92535 0.653855 -0.472799 -0.590707 235 228 221
-4.60906 8.49598 5.65123 -0.0142781 -0.995789 -0.090555 208 199 191
-4.57557 8.37894 6.48561 0.0309196 -0.998228 0.0508325 249 246 244
-4.71545 8.4345 6.47384 -0.0292202 -0.999473 -0.0141507 241 236 231
-4.71555 8.43249 6.46609 -0.0386417 -0.997655 0.0564876 236 231 226
-4.70355 8.42158 6.45196 -0.0218351 -0.998383 0.0524798 236 231 225
-4.81326 8.43519 6.35311 0.0166366 -0.984061 -0.177051 151 143 136
-4.82091 8.4242 6.32282 0.553519 -0.780741 -0.289931 178 174 171
-4.8608 8.42222 6.31039 -0.00474048 -0.995927 -0.0900377 211 208 206
-4.83615 8.39879 6.27149 0.618677 -0.785027 -0.0311648 208 205 204
-4.86794 8.40801 6.26046 -0.0161167 -0.987549 0.156483 219 215 214
-4.94159 8.42537 6.21584 0.036541 -0.951171 0.306494 220 218 218
-4.9233 8.42041 6.19141 -0.0357921 -0.997904 0.0539166 205 201 202
-4.99901 8.4456 6.17052 0.178502 -0.937773 0.297856 197 193 188
-5.11452 8.447 6.10164 -0.0454037 -0.98807 -0.147159 199 191 182
-5.17097 8.47704 6.05353 0.010212 -0.842835 -0.538075 226 210 197
-5.19165 8.49004 6.0553 -0.0134944 -0.891006 -0.45379 225 209 196
-5.23603 8.48821 6.00446 0.0656936 -0.971455 0.227947 207 199 192
-5.26678 8.47357 5.98216 0.432085 -0.897932 -0.083795 218 211 207
-4.77531 8.43041 6.42069 0.397978 -0.815492 0.420222 221 208 199
-4.84351 8.43458 6.4058 -0.0532473 -0.997146 -0.0535192 239 234 230
-4.80705 8.43034 6.3848 0.00956708 -0.972927 0.230915 193 181 173
-4.87723 8.43414 6.36647 -0.018488 -0.995644 -0.0913861 221 217 215
-4.91254 8.42371 6.27929 -0.0121144 -0.999616 -0.024917 226 222 219
-5.07818 8.46671 6.20256 0.0432737 -0.94669 0.319227 180 170 159
-5.10258 8.4657 6.15325 -0.0400294 -0.99904 -0.0178093 195 187 176
-5.09995 8.45959 6.14351 -0.0122498 -0.989871 0.141437 201 191 180
-5.10635 8.45378 6.0751 -0.0450193 -0.994158 -0.0980931 243 237 229
-4.73378 8.44001 6.05802 0.960707 -0.252431 -0.115417 170 167 158
-4.76323 8.43152 5.96794 0.430206 -0.12968 -0.893368 200 199 200
-4.81783 8.44005 5.94356 0.536334 0.0257504 -0.843613 209 210 210
-4.89538 8.45175 5.89576 0.366809 -0.508465 -0.779047 227 222 222
-4.91985 8.4543 5.89013 0.622792 -0.571818 -0.533998 229 225 224
-5.02236 8.48126 5.82956 0.619276 -0.601422 -0.504765 182 173 164
-5.19553 8.43642 5.5643 0.939746 -0.116093 0.32156 156 156 155
-4.5621 8.43124 6.23915 -0.032525 -0.999457 0.00526227 203 194 190
-4.62538 8.44017 6.22709 0.021643 -0.996499 0.0807552 241 241 241
-5.40375 8.424 6.43955 0.287332 -0.820776 -0.493727 201 198 194
-4.67419 8.45534 6.18701 0.0508879 -0.957566 -0.283684 220 214 209
-4.72517 8.41225 6.0251 0.992769 -0.112308 0.0423936 195 195 194
-5.46542 8.49292 5.97684 0.216999 -0.939083 0.266525 224 219 213
-4.76664 8.41905 5.99681 0.994897 -0.100735 -0.00562996 237 236 236
-4.79846 8.40688 5.9701 0.673885 -0.308656 -0.671275 214 213 214
-4.85741 8.41581 5.94558 0.453338 -0.0956037 -0.886197 239 238 238
-4.87571 8.43622 5.93455 0.317504 -0.709639 -0.62897 236 234 235
-4.97361 8.46051 5.84696 0.460405 -0.652504 0.601885 208 197 190
-5.07219 8.49205 5.80196 0.708789 -0.690627 0.143711 166 161 151
-5.11164 8.49473 5.77279 -0.0167973 -0.992951 0.117327 204 195 186
-5.1423 8.46827 5.69569 0.270229 -0.415061 -0.868735 238 238 237
-5.17795 8.38899 5.56698 0.873553 0.42375 -0.239461 214 216 213
-4.56768 8.41113 6.28522 0.130659 -0.878294 -0.459921 229 226 226
-4.65278 8.44495 6.26652 0.373313 -0.717271 -0.588354 233 230 229
-4.73885 8.45807 6.16337 0.165474 -0.846979 -0.505218 233 229 227
-4.76363 8.41142 5.9968 0.703619 -0.339883 -0.62402 237 236 236
-4.55714 8.46907 6.11153 0.073691 -0.99283 -0.0941148 213 203 197
-4.62028 8.48364 6.03984 0.0117937 -0.992469 0.121927 166 156 146
-4.69021 8.44744 5.92528 0.413815 -0.263047 -0.87153 146 139 134
-5.06107 8.48399 5.61327 -0.00353047 -0.998236 -0.0592673 213 202 191
-4.64747 8.49562 6.1146 0.641638 -0.470542 -0.605715 191 180 170
-4.66585 8.48393 6.06774 0.151971 -0.947715 0.280607 148 139 128
-4.68477 8.48102 6.01845 0.411803 -0.898307 0.153177 177 173 165
-4.7045 8.46255 5.99335 0.763584 -0.552978 -0.333399 168 167 164
-4.73728 8.45945 5.96674 0.453455 -0.784536 -0.422944 167 164 160
-4.85302 8.49526 5.89473 0.642218 0.0256575 -0.766092 202 198 196
-4.88826 8.49039 5.8676 0.702055 -0.335323 -0.628234 214 206 204
-4.95996 8.49991 5.8042 0.27907 -0.955222 -0.0983354 232 228 225
-4.70898 8.46593 6.12181 0.146972 -0.853107 -0.500608 160 143 133
-4.67534 8.48418 6.08606 0.131013 -0.973696 -0.186417 143 129 117
-4.71206 8.47864 6.05889 0.0408327 -0.998417 -0.0386907 171 164 151
-4.70833 8.44243 6.02435 0.957909 -0.252885 -0.135867 148 148 148
-4.72898 8.4337 5.99436 0.75726 -0.390114 -0.523803 170 171 170
-4.89309 8.49206 5.87594 0.553127 -0.171831 -0.815184 227 220 218
-4.9941 8.4891 5.79659 0.0298245 -0.758059 -0.651503 220 211 204
-5.04902 8.49748 5.76995 0.605802 -0.780769 -0.152981 190 176 161
-4.52257 8.42714 6.22879 -0.0241667 -0.997409 -0.0677544 232 225 222
-4.58483 8.44596 6.17785 -0.0643706 -0.975136 -0.212051 185 179 177
-4.58483 8.44596 6.17785 -0.0643706 -0.975136 -0.212051 185 179 177
-4.58483 8.44596 6.17785 -0.0643706 -0.975136 -0.212051 185 179 177
-4.61618 8.45931 6.15938 -0.060586 -0.910048 -0.41005 201 194 191
-4.67829 8.47395 6.13395 0.164779 -0.955575 -0.244386 202 187 178
-4.52928 8.44578 6.17132 0.108639 -0.614527 -0.78138 210 201 198
-4.50774 8.4766 5.88141 0.0529557 -0.912462 0.405719 194 182 172
-5.31001 8.41177 6.48723 0.378656 -0.811751 -0.444611 205 197 190
-4.52983 8.48488 5.89296 0.277948 -0.958777 0.0590977 179 167 159
-4.52561 8.47712 5.83218 0.175827 -0.960724 0.214695 222 215 208
-4.54268 8.46801 5.80796 0.109164 -0.962833 -0.247055 248 246 244
-4.50064 8.38948 6.40767 0.892323 -0.422714 0.158346 219 213 208
-4.53767 8.39165 6.37498 0.360278 -0.815398 -0.453129 232 225 219
-4.58142 8.37809 6.3286 -0.0538187 -0.998407 -0.0169619 250 248 246
-4.73955 8.43486 6.23751 0.381624 -0.864791 0.326342 83 78 77
-4.85991 8.44559 6.14185 0.0536315 -0.931363 0.36012 147 142 133
-4.83545 8.40932 6.0883 0.0502947 -0.931742 0.359622 228 226 222
-4.87296 8.4308 6.11432 -0.00869663 -0.980933 0.194152 208 204 199
-4.76064 8.45173 6.13929 0.149535 -0.851055 -0.503333 230 221 216
-4.90851 8.41266 6.01629 0.0380814 -0.972408 -0.230157 251 250 249
-5.04177 8.46863 5.99489 0.372194 -0.923608 -0.0917635 229 220 214
-5.0097 8.45813 5.99789 0.0230677 -0.986084 -0.164641 238 234 231
-5.04177 8.46863 5.99489 0.372194 -0.923608 -0.0917635 229 220 214
-5.0097 8.45813 5.99789 0.0230677 -0.986084 -0.164641 238 234 231
-5.0097 8.45813 5.99789 0.0230677 -0.986084 -0.164641 238 234 231
-5.00071 8.45273 6.00352 0.00918517 -0.992971 -0.118 239 234 231
-4.98912 8.41444 5.96667 -0.00878999 -0.999569 -0.0279956 181 172 161
-5.02216 8.4164 5.90261 0.125755 -0.948352 -0.29123 139 144 140
-5.09961 8.43145 5.88018 0.0276557 -0.969698 -0.242737 239 241 241
-4.52972 8.38408 6.36686 0.0801604 -0.870125 0.486269 234 226 219
-4.91432 8.49248 5.5095 -0.0201525 -0.986646 0.161626 213 203 194
-4.6206 8.38976 6.38181 -0.016713 -0.972753 0.231242 239 235 233
-4.91876 8.42549 6.07636 -0.0164136 -0.986491 0.162988 235 231 229
-4.77042 8.44458 6.09295 0.659216 -0.395444 0.639576 171 163 149
-4.74855 8.40573 6.06198 0.771366 -0.387744 0.504628 234 232 228
-4.8075 8.392 5.99933 0.417793 -0.785433 -0.456665 216 215 216
-4.85605 8.39856 5.96433 0.184981 -0.969734 -0.159367 248 246 247
-4.83997 8.38953 5.97406 0.35678 -0.90795 -0.219854 245 244 244
-4.92261 8.43231 5.91457 0.428397 -0.901309 -0.0641681 239 237 236
-4.97565 8.43071 5.85535 0.509865 -0.0206761 -0.860006 122 116 104
-4.9745 8.41705 5.86517 0.456179 -0.042516 -0.888872 125 124 114
-5.06171 8.46457 5.83093 0.772312 -0.634887 0.0212643 145 146 139
-5.1436 8.49016 5.7876 0.267334 -0.909094 -0.3195 210 206 201
-5.29208 8.48529 5.64699 0.190327 -0.84462 0.500393 163 161 154
-4.53297 8.38923 6.30874 0.190405 -0.905023 -0.380367 224 223 223
-4.74925 8.48893 5.53521 -0.018561 -0.999385 -0.0297545 174 162 153
-4.71363 8.44676 6.21077 0.288801 -0.953755 0.0833363 182 174 168
-4.77693 8.44165 6.19329 0.252658 -0.947783 -0.194604 204 199 193
-4.82246 8.38091 6.0364 0.185074 -0.912336 0.365227 238 237 236
-4.84496 8.38441 5.97937 0.543236 -0.839537 0.00848427 244 243 244
-4.94783 8.42667 5.94336 0.2472 -0.86109 0.444316 244 241 239
-4.95808 8.40234 5.92725 -0.0307378 -0.996806 0.0737139 159 151 143
-4.94135 8.42214 5.93662 -0.0297464 -0.99573 0.0873889 244 240 239
-5.05168 8.43745 5.85984 0.0464578 -0.942892 -0.329844 142 149 145
-5.13299 8.46798 5.83489 0.181166 -0.936339 -0.300747 225 226 226
-4.52977 8.47265 5.75549 0.208698 -0.975945 -0.0630628 227 226 227
-5.34304 8.40857 6.46099 0.323482 -0.789741 -0.521218 168 161 155
-4.52646 8.46409 5.76693 0.249059 -0.837941 -0.485619 231 231 232
-4.61205 8.49514 5.73658 0.253065 -0.765188 -0.591985 235 232 230
-4.6938 8.45048 6.25381 0.118444 -0.986618 0.112052 234 227 222
-4.93445 8.47343 5.5845 -0.0270769 -0.933684 -0.357073 239 232 228
-5.49565 8.48535 6.35174 0.402177 -0.913872 0.055611 199 192 185
-5.4099 8.45235 6.4013 0.132726 -0.931426 -0.338865 199 187 179
-4.5031 8.46597 6.14297 -0.0195348 -0.996846 -0.0769201 173 163 156
-5.34576 8.43427 6.4226 0.31429 -0.807059 -0.499878 172 167 160
-5.44519 8.37838 6.49512 0.464776 -0.655574 -0.595152 236 229 225
-4.63555 8.48159 5.99371 -0.0443137 -0.995724 0.0810488 158 150 137
-4.64958 8.47782 5.97374 0.0405276 -0.995589 0.0846181 187 182 169
-4.69456 8.47481 5.95498 0.477286 -0.765338 -0.431805 188 180 173
-5.05944 8.47238 6.25461 0.02435 -0.95227 0.304285 232 225 217
-4.95967 8.49909 5.53412 -0.0166697 -0.999409 0.0300628 198 191 186
-4.54599 8.49567 5.71889 0.366964 -0.621764 -0.691915 220 216 213
-4.69873 8.4822 5.93756 0.0929471 -0.927255 -0.36271 191 180 175
-4.74625 8.48925 5.92184 0.356847 -0.622249 -0.696755 142 134 128
-4.78009 8.49475 5.89428 0.387021 -0.582976 -0.71439 130 123 116
-4.96447 8.4978 5.63797 -0.036921 -0.995798 0.0838 228 223 218
-4.50435 8.48698 5.74601 0.334939 -0.663716 -0.668803 197 194 192
-5.04357 8.44079 6.47099 0.0591058 -0.978347 0.198352 221 214 207
-5.11901 8.44296 6.43447 0.00285242 -0.984767 0.173858 211 206 202
-5.13114 8.42465 6.35673 -0.0073006 -0.990812 0.135049 211 202 196
-5.13114 8.42465 6.35673 -0.0073006 -0.990812 0.135049 211 202 196
-5.13669 8.4282 6.35804 -0.0115349 -0.993086 0.116825 211 202 195
-5.27546 8.43493 6.47506 0.35708 -0.901985 -0.242729 208 203 200
-4.90019 8.43661 6.49151 0.0507785 -0.944955 0.323235 222 216 213
-4.9518 8.43918 6.44739 -0.0429024 -0.977295 -0.207495 252 251 248
-5.00102 8.43685 6.43962 0.534535 -0.753979 -0.381822 215 204 195
-5.03109 8.44057 6.40972 0.235178 -0.915371 -0.326784 224 214 205
-5.03057 8.44361 6.37471 0.39989 -0.892359 0.209246 218 211 205
-5.32871 8.48121 6.15678 0.294264 -0.955628 0.0135499 220 211 204
-5.39488 8.49302 6.11694 0.52648 -0.722622 0.447925 92 87 80
-5.42403 8.4978 6.08119 0.364526 -0.93023 -0.0423425 171 167 163
-5.4923 8.48532 6.01224 0.504169 -0.84586 -0.174167 176 172 171
-4.60177 8.47751 6.00354 0.553669 -0.686335 0.471588 211 201 191
-4.61966 8.47639 5.94146 0.55133 -0.788621 0.272236 249 245 242
-5.46287 8.48664 6.05864 0.442209 -0.752012 -0.488804 173 172 174
-4.96265 8.43275 6.47941 0.370021 -0.88647 0.277948 212 206 199
-5.0561 8.44754 6.45723 0.142914 -0.947442 0.286232 217 208 199
-5.06976 8.43958 6.40397 0.0397557 -0.955558 0.292112 177 169 163
-5.06926 8.42571 6.357 0.0250939 -0.972505 0.231527 231 225 220
-5.11176 8.42626 6.36471 0.00193603 -0.984895 0.173141 223 216 211
-5.24545 8.44782 6.21251 -0.0119509 -0.999905 0.00682224 175 170 163
-5.28267 8.45227 6.19581 0.202461 -0.928275 -0.311954 222 214 208
-5.40495 8.49972 6.19166 0.0346201 -0.960276 0.276896 169 155 145
-5.41795 8.48907 6.12806 0.262116 -0.960146 -0.0970325 100 96 90
-5.44781 8.474 6.10125 0.518381 -0.730964 -0.443817 152 151 153
-5.4798 8.47898 6.07067 0.418649 -0.861279 -0.287978 165 164 167
-4.80139 8.46943 5.70013 -0.054414 -0.987363 -0.148839 233 231 232
-5.4688 8.49504 5.79414 0.330911 -0.630903 0.701755 164 164 164
-5.17302 8.46305 6.06028 0.0960548 -0.964589 0.245644 222 207 192
-5.35719 8.37317 6.49579 0.547296 -0.772159 -0.322859 197 190 183
-5.07891 8.46416 6.03661 0.0264918 -0.997291 0.0686163 215 201 189
-4.90177 8.41745 6.21699 0.0526011 -0.931144 0.360837 200 199 202
-5.12668 8.46902 5.97481 0.0833284 -0.875956 0.475139 169 165 157
-5.05944 8.47238 6.25461 0.02435 -0.95227 0.304285 232 225 217
-5.20696 8.47047 5.52759 0.836225 0.198327 -0.511267 162 160 157
-5.05944 8.47238 6.25461 0.02435 -0.95227 0.304285 232 225 217
-5.49627 8.49559 6.30411 0.171598 -0.969778 -0.17345 179 170 159
-5.41013 8.49657 6.18808 -0.00046666 -0.985417 0.170158 156 144 134
-5.04177 8.46863 5.99489 0.372194 -0.923608 -0.0917635 230 221 215
-5.21557 8.4283 6.49382 0.0237892 -0.968526 -0.247774 225 218 215
-4.87954 8.42606 6.10398 0.190887 -0.78571 0.588406 219 214 210
-5.31168 8.45987 6.41487 0.453235 -0.752778 -0.477393 195 186 181
-5.38096 8.47869 6.38983 0.00300571 -0.905912 -0.423456 217 213 206
-5.38096 8.47869 6.38983 0.00300571 -0.905912 -0.423456 217 213 206
-5.38096 8.47869 6.38983 0.00300571 -0.905912 -0.423456 217 213 206
-5.37829 8.4795 6.38949 -0.0345853 -0.894325 -0.446079 212 207 201
-5.43791 8.48007 6.37548 -0.00653321 -0.990732 -0.135671 203 193 187
-5.43791 8.48007 6.37548 -0.00653321 -0.990732 -0.135671 203 193 187
-5.43788 8.48007 6.37565 -0.0385425 -0.987026 -0.155866 203 193 187
-4.53512 8.49727 5.64926 0.114152 -0.855258 -0.505472 230 222 216
-5.41013 8.49657 6.18808 -0.00046666 -0.985417 0.170158 156 144 134
-5.41398 8.49903 6.18876 -0.00506766 -0.98811 0.153666 156 143 134
-5.45662 8.4832 6.17079 0.217093 -0.906047 0.363249 165 163 162
-5.4828 8.47456 6.07156 0.471594 -0.809346 -0.350084 168 168 171
-4.80139 8.46999 5.92321 0.483998 -0.441429 -0.755571 205 203 201
-5.0903 8.44393 6.49463 0.327385 -0.900469 -0.286313 124 117 110
-5.13956 8.43536 6.47425 0.421792 -0.78797 -0.448548 156 150 145
-5.14621 8.44132 6.42881 -0.0144328 -0.994689 0.101907 234 230 226
-5.2431 8.46195 6.39998 -0.0132388 -0.995898 0.0895078 195 187 184
-5.31492 8.48426 6.38015 -0.0276666 -0.999445 0.018571 182 179 175
-5.34481 8.49861 6.33417 -0.0460536 -0.929184 -0.366738 220 210 202
-5.24616 8.48223 6.08335 0.380384 -0.597991 0.705489 219 203 192
-5.48802 8.45496 6.10225 0.705272 -0.674144 -0.219367 172 171 175
-4.83014 8.48163 5.90194 0.466847 -0.538338 -0.701602 205 202 200
-5.47932 8.42391 6.45987 0.295764 -0.809693 -0.506873 216 211 207
-5.37901 8.38421 6.47607 0.290781 -0.809162 -0.510591 182 174 168
-5.18567 8.45133 6.49355 -0.0424194 -0.948531 -0.313832 169 160 155
-5.2508 8.46028 6.45932 0.0452121 -0.905555 -0.421813 225 222 220
-5.28568 8.46451 6.44323 0.0191414 -0.975916 -0.217305 223 220 220
-5.31264 8.46038 6.41051 0.337914 -0.839872 -0.42477 190 182 177
-5.39872 8.49613 6.35412 0.163557 -0.702567 -0.692567 236 225 219
-5.44207 8.49251 6.3285 0.244374 -0.949626 -0.196192 188 175 168
-5.49537 8.49899 6.25287 0.0605653 -0.983739 0.169083 201 192 188
-5.45708 8.49935 6.21032 -0.0179107 -0.998351 0.0545424 193 181 176
-5.31175 8.43375 6.44937 0.42062 -0.722784 -0.548326 144 136 133
-4.80196 8.41383 6.09393 0.286212 -0.645793 0.707837 211 208 202
-4.61082 8.46138 5.83075 -0.0210882 -0.980582 0.194972 243 239 237
-4.82675 8.41735 6.45703 0.0968075 -0.897472 0.430316 244 242 241
-4.58326 8.47026 5.90716 0.019365 -0.946568 0.321923 231 223 220
-4.58147 8.48099 5.97205 0.160956 -0.975415 0.150526 182 175 169
-4.70121 8.47736 5.79243 0.552416 -0.818821 0.156104 231 223 219
-4.53315 8.48014 6.00649 0.0349326 -0.969127 -0.244076 244 239 237
-5.12149 8.33027 5.61256 0.627267 -0.0772528 0.774963 221 214 211
-4.52646 8.46209 6.06694 -0.0501923 -0.996902 0.0605527 233 230 223
-5.11724 8.32613 5.61228 0.631858 -0.0693248 0.771977 219 211 208
-4.73171 8.49074 5.75501 -0.0118103 -0.974012 0.226188 234 228 223
-4.84366 8.49042 5.64501 0.53319 -0.760229 -0.371161 214 206 201
-4.84451 8.49161 5.64702 0.48634 -0.801913 -0.347 214 207 203
-5.64971 8.41557 6.48902 0.362874 -0.650921 0.666802 216 206 201
-5.89529 8.49512 5.93613 0.0259115 -0.946475 0.321736 246 241 237
-5.89529 8.49512 5.93613 0.0259115 -0.946475 0.321736 246 241 237
-5.89504 8.49498 5.93615 0.0808543 -0.885584 0.457387 246 241 237
-6.19996 8.42993 6.18658 0.307988 -0.844443 0.438246 194 184 173
-5.51561 8.49504 6.31056 0.376535 -0.92479 0.0546295 185 175 164
-5.53497 8.4997 6.27424 0.0559975 -0.946858 0.31674 221 205 192
-5.55094 8.48191 6.22896 0.390474 -0.802892 0.450438 149 140 133
-5.54306 8.4634 6.18462 0.431329 -0.860275 0.271811 178 177 176
-6.10386 8.49819 5.60261 0.0104584 -0.985469 0.169533 221 212 207
-5.5788 8.43194 6.12932 0.169072 -0.974853 0.14518 207 205 208
-5.62335 8.45085 6.07937 -0.0239801 -0.961961 -0.272132 208 206 206
-6.32026 8.48204 5.84353 0.0779559 -0.988438 0.13005 99 99 99
-6.04388 8.45211 6.23733 0.0275927 -0.969518 0.243461 214 209 204
-6.25481 8.4825 5.8918 0.790102 -0.464547 -0.399919 118 118 120
-6.24678 8.48168 5.87505 0.205643 -0.917726 -0.339839 118 120 124
-5.98422 8.44725 6.20046 0.0194084 -0.970229 0.24141 242 239 236
-6.20191 8.43084 6.1917 0.387143 -0.862186 0.326734 195 184 174
-5.83671 8.46884 6.45365 -0.000194848 -0.999813 0.019326 208 197 189
-6.30721 8.45995 6.12805 0.0129386 -0.91027 -0.413812 251 246 243
-5.70235 8.46005 5.98694 0.0614693 -0.922971 0.379928 241 236 231
