ply
format ascii 1.0
element vertex 741
property float x
property float y
property float z
property float nx
property float ny
property float nz
property uchar diffuse_red
property uchar diffuse_green
property uchar diffuse_blue
end_header
-10.7628 3.95774 6.40224 0.282581 -0.950512 -0.12913 78 83 90
-10.4534 3.86182 6.25588 0.816731 0.570298 -0.0878145 113 119 129
-10.4166 3.84145 6.2452 0.613639 -0.776376 0.143833 103 110 120
-10.153 3.91951 6.6581 -0.00609455 0.034215 -0.999396 58 60 63
-10.131 3.88615 6.65506 0.00823164 -0.0115571 -0.999899 35 39 46
-10.4835 3.9561 6.29217 0.932777 0.360322 -0.00975113 180 184 190
-10.2755 3.98774 6.67115 -0.00899351 0.0483624 -0.998789 161 162 166
-10.4871 3.9322 6.17307 0.909185 0.413666 -0.0475734 178 184 193
-10.204 3.92052 6.66834 -0.039331 0.105761 -0.993614 56 58 61
-10.1103 3.98847 6.66129 -0.11363 0.00446291 -0.993513 163 165 169
-10.6107 3.90221 6.77938 0.0468698 -0.665525 -0.744903 30 32 34
-10.6112 3.90487 6.7313 -0.145678 -0.639474 -0.754885 43 46 50
-10.3975 3.83921 6.49534 -0.132312 -0.692245 -0.709429 38 39 40
-10.678 3.9114 6.57379 0.751254 -0.656278 0.0701183 50 55 63
-10.6775 3.9113 6.57315 0.739329 -0.669927 0.0677476 50 55 63
-10.6416 3.94565 6.57042 0.750056 -0.659457 0.0503195 129 129 131
-10.6429 3.94276 6.64305 0.595164 -0.0464633 -0.80226 122 121 122
-10.6474 3.87368 6.66066 -0.0686152 -0.693791 -0.716901 38 40 42
-10.5131 3.88835 6.93238 -0.184576 -0.363718 -0.913039 15 16 15
-10.3744 3.79638 6.51807 -0.165966 -0.582175 -0.795944 26 27 29
-10.3768 3.79733 6.52074 -0.168325 -0.571525 -0.803135 26 27 28
-10.6961 3.89532 6.61534 0.751663 -0.655979 0.0685224 42 45 47
-10.7153 3.8744 6.56992 0.89788 -0.330531 0.290795 28 36 49
-10.7186 3.87522 6.57311 0.897936 -0.330448 0.290715 28 36 49
-10.5786 3.91977 6.75593 -0.0334614 -0.825016 -0.564118 35 37 40
-10.2811 3.72913 6.32489 -0.247153 -0.540745 -0.804059 29 30 32
-10.609 3.91212 6.68225 -0.142414 -0.646681 -0.749348 62 65 69
-10.111 3.91873 6.65454 -0.0119451 0.022556 -0.999674 57 59 63
-10.2811 3.72913 6.32489 -0.247153 -0.540745 -0.804059 29 30 32
-10.7988 3.93055 6.41473 0.506296 -0.862093 -0.021425 51 59 71
-10.3445 3.77971 6.36158 0.0665301 -0.572706 -0.817057 36 40 45
-10.1917 3.80056 6.04511 -0.157504 -0.57337 -0.804015 164 165 168
-10.3059 3.90373 6.22414 -0.323852 -0.563639 -0.759889 173 174 176
-10.3608 3.77813 6.42067 -0.24507 -0.552904 -0.796391 30 32 34
-10.3608 3.77813 6.42067 -0.24507 -0.552904 -0.796391 30 32 34
-10.6393 3.90114 6.62291 0.743996 -0.665075 0.064382 45 45 44
-10.66 3.90767 6.64181 0.515527 -0.856858 -0.00512809 44 44 42
-10.6475 3.92572 6.60221 0.736178 -0.673648 0.0651104 71 71 70
-10.3434 3.8082 6.37863 -0.244297 -0.556713 -0.793971 45 46 46
-10.2926 3.89619 6.69687 -0.16818 -0.585084 -0.793343 36 40 46
-10.6975 3.89335 6.53742 0.744857 -0.663476 0.0706185 31 39 52
-10.184 3.88591 6.66383 -0.0163379 0.227276 -0.973693 35 38 43
-10.1775 3.98039 6.64802 -0.0680044 0.0156572 -0.997562 161 163 165
-10.4551 3.97771 6.64872 -0.11382 -0.0329503 -0.992955 161 164 170
-10.3095 3.92927 6.50085 -0.0652827 0.0720042 -0.995266 170 174 180
-10.1916 3.82439 6.06219 -0.158414 -0.576599 -0.801522 172 174 178
-10.1967 3.86466 6.58948 -0.0293278 0.275747 -0.960783 34 37 43
-10.4909 3.96022 6.69826 -0.0283346 0.181366 -0.983007 106 108 111
-10.0091 3.76768 6.55648 0.0979811 0.637125 -0.764508 44 53 70
-10.5353 3.96088 6.7015 -0.0242273 0.191399 -0.981213 101 102 106
-10.3945 3.91044 6.80998 -0.177364 -0.276366 -0.944544 32 35 40
-10.4948 3.93069 6.8598 -0.179275 -0.311306 -0.933246 30 32 36
-10.6474 3.87368 6.66066 -0.0686152 -0.693791 -0.716901 29 30 34
-10.6571 3.87823 6.67126 -0.067908 -0.683983 -0.726331 34 36 40
-10.4663 3.92016 6.84002 -0.181385 -0.373308 -0.909803 31 33 37
-10.7377 3.9643 6.48516 0.282955 -0.935236 -0.21277 97 97 100
-10.558 3.91251 6.78944 -0.174041 -0.468349 -0.866233 20 20 19
-10.4953 3.89172 6.866 -0.182635 -0.437357 -0.880547 26 27 28
-10.5228 3.91564 6.91061 -0.184108 -0.432617 -0.88258 24 24 23
-10.3109 3.81827 6.34693 -0.161718 -0.383414 -0.909308 88 91 96
-10.4663 3.92016 6.84002 -0.181385 -0.373308 -0.909803 32 31 30
-10.5361 3.87419 6.97923 -0.256536 -0.576806 -0.775554 45 45 42
-10.7307 4.02926 -3.15096 0.320767 0.342102 0.883218 40 40 40
-10.4516 4.04662 -3.13804 0.0536491 -0.3825 0.922397 62 62 61
-10.8933 4.05529 -3.0688 0.0607789 -0.800942 0.59565 134 134 137
-10.1278 3.99606 -3.21135 -0.107574 -0.628445 0.770379 21 21 21
-10.3311 4.04154 -3.22565 0.0127177 -0.85798 0.513526 23 23 23
-10.6917 4.04625 -3.13062 0.0661549 -0.358605 0.931143 67 68 68
-10.7277 4.04359 -3.12415 0.0676644 -0.359523 0.93068 47 48 48
-10.349 4.05184 -3.17776 -0.0836983 -0.717169 0.691855 56 56 56
-10.544 4.01377 -3.16388 0.186119 0.0266786 0.982165 36 38 38
-10.7126 4.06536 -3.09222 0.177391 -0.451844 0.874282 146 145 149
-10.7209 4.06657 -3.12029 0.125384 -0.934159 0.334106 95 95 97
-10.6809 4.06776 -3.10295 0.0469494 -0.773288 0.632315 142 142 147
-10.6924 4.07392 -3.10645 0.100684 -0.921803 0.374356 147 148 153
-10.5088 4.04227 -3.13658 0.0582537 -0.368165 0.927934 76 77 77
-10.564 4.06739 -3.0978 0.100013 -0.925362 0.365653 148 149 151
-10.3911 4.00828 -3.14993 -0.0952971 -0.436233 0.894773 32 34 34
-10.6951 4.02008 -3.15667 0.066127 -0.353109 0.933242 38 39 38
-10.8953 4.05188 -3.05276 0.0499124 -0.711118 0.701299 141 141 145
-10.8956 4.05888 -3.10966 0.0526588 -0.763326 0.643864 120 120 122
-10.8198 4.01809 -3.14601 0.0841566 -0.287693 0.954018 32 32 32
-10.7464 4.01059 -3.16506 0.0275792 -0.319365 0.94723 41 42 42
-10.9873 4.05253 -3.04802 0.102916 -0.252604 0.962081 172 172 175
-10.9791 4.03768 -3.12053 0.136085 -0.853839 0.502434 48 47 48
-10.932 4.04029 -3.12513 0.0409721 -0.295331 0.954516 58 59 59
-10.5574 4.03848 -3.16574 -0.0847577 -0.657083 0.749038 13 13 13
-10.5128 4.03903 -3.16794 0.0141551 -0.33588 0.941798 47 48 48
-10.1327 4.06036 -3.10557 0.0348644 -0.805946 0.590962 152 152 153
-10.1572 4.07288 -3.15634 0.0772026 -0.914222 0.397791 124 122 125
-10.1599 4.07044 -3.1487 0.160421 -0.950968 0.264433 128 126 128
-10.1405 4.06452 -3.14942 0.168482 -0.976805 0.132159 100 99 100
-10.4258 4.05291 -3.1484 0.0518516 -0.38425 0.921772 68 68 68
-10.5651 4.04726 -3.1404 0.0514372 -0.417094 0.907407 94 94 95
-10.8172 4.04452 -3.11909 0.0653129 -0.389697 0.918624 47 47 48
-10.774 4.04464 -3.12233 0.0665643 -0.373958 0.925054 84 84 85
-10.7586 4.06623 -3.08965 0.137697 -0.938084 0.317866 138 138 142
-10.7653 4.06435 -3.11669 0.103811 -0.922395 0.372035 99 98 100
-10.8028 4.06646 -3.08645 0.107651 -0.924992 0.364418 155 155 161
-10.898 4.08094 -3.01909 0.215216 -0.951323 0.220604 191 195 206
-10.5973 4.00267 -3.21328 0.00508544 -0.235892 0.971766 20 22 23
-10.5661 4.01903 -3.00325 0.167269 -0.971188 0.169752 159 159 164
-10.5053 4.0185 -3.17912 0.0798603 0.00548545 0.996791 26 27 27
-10.4083 4.02017 -3.16613 0.027965 -0.674407 0.737831 20 20 20
-10.3605 4.04909 -3.24076 -0.0238198 -0.702794 0.710994 19 19 19
-10.1763 4.04848 -3.21595 -0.0220349 -0.761559 0.647721 54 55 54
-10.1659 4.0449 -3.20409 0.0627165 -0.887657 0.456214 53 53 53
-10.2034 4.08626 -3.08945 0.209689 -0.956736 0.201708 174 175 176
-10.0357 4.10517 -3.1943 0.0900748 -0.0233569 0.995661 159 158 159
-10.0244 4.07396 -3.05605 -0.00449458 -0.842494 0.538687 181 182 183
-10.4501 4.00952 -3.15491 0.0314155 -0.575995 0.816849 29 30 30
-10.5668 4.06643 -3.11471 0.199934 -0.97189 0.124327 137 137 139
-10.5986 4.06992 -3.10695 0.0485009 -0.894337 0.444758 137 137 139
-10.4455 4.01183 -2.99681 0.130503 -0.963087 0.235442 158 159 162
-10.5341 4.06768 -3.13087 0.0887394 -0.911809 0.40091 122 122 123
-10.4655 4.06109 -3.05043 0.0975373 -0.924628 0.36817 181 182 189
-10.2756 4.05063 -3.19327 0.0908265 -0.926033 0.366351 24 24 24
-10.3353 4.05401 -3.06316 0.168327 -0.975353 0.142662 171 172 175
-10.7138 4.01457 -3.17472 0.0940045 -0.441298 0.892423 26 26 26
-10.2131 4.06253 -3.02552 -0.00319266 -0.771981 0.635638 183 184 189
-10.2403 4.10631 -3.00217 0.0351835 -0.250441 0.967492 186 188 191
-10.0152 4.07389 -3.0976 0.178313 -0.978335 0.10519 180 180 185
-10.116 4.08423 -3.099 0.0411001 -0.835399 0.548105 177 178 180
-10.1205 4.08344 -3.10754 0.181823 -0.978777 0.0945354 174 174 178
-10.0853 4.06913 -3.04564 0.0220134 -0.714151 0.699646 182 184 187
-10.1879 4.02047 -3.20955 -0.0956797 -0.693606 0.713972 20 21 21
-10.2621 4.07051 -3.15279 0.105684 -0.968036 0.227457 121 120 120
-10.3514 4.06258 -3.03747 0.0258993 -0.873289 0.486514 176 176 181
-10.368 4.0752 -3.11995 0.16949 -0.975278 0.141794 152 152 155
-10.2711 4.06793 -3.06583 0.0838675 -0.912372 0.400678 185 185 192
-10.3032 4.06018 -3.13156 0.101416 -0.930518 0.351925 118 118 119
-10.9225 4.04453 -3.11219 0.0698584 -0.384608 0.920433 64 64 66
-10.5904 4.06894 -3.06327 0.120685 -0.934227 0.335642 173 174 178
-10.9209 4.0608 -3.10037 0.0741067 -0.852507 0.517436 102 102 105
-10.5799 4.05294 -3.00398 0.129719 -0.936943 0.324517 187 189 195
-10.8638 4.04553 -3.11722 0.065354 -0.398858 0.914681 76 77 76
-10.2832 4.07219 -3.07085 0.0620304 -0.874347 0.48132 181 181 187
-10.3915 4.04997 -2.99843 0.0667455 -0.869075 0.490157 191 194 202
-10.3318 4.02974 -3.03805 0.152103 -0.969175 0.193816 162 162 166
-10.373 4.04974 -3.10411 0.0879362 -0.915734 0.392045 121 121 122
-10.3318 4.05602 -3.17645 0.161721 -0.949035 0.270515 67 67 68
-10.5604 4.05583 -3.0078 0.103357 -0.926383 0.362121 187 190 196
-10.5799 4.05294 -3.00398 0.129719 -0.936943 0.324517 178 180 186
-10.8819 3.99663 -3.13502 0.0568621 -0.778088 0.625576 24 25 25
-10.9354 4.04994 -3.04618 0.0511234 -0.583391 0.810581 141 141 145
-10.8718 4.02103 -3.147 0.0688371 -0.371566 0.925851 33 33 33
-10.4357 4.06071 -3.08216 0.0963971 -0.925017 0.367494 161 161 166
-10.4109 4.04106 -3.03412 0.359695 -0.918637 -0.163479 185 185 195
-10.3514 4.01813 -2.99764 0.15369 -0.96909 0.192988 169 170 176
-10.202 4.05909 -3.06204 0.28935 -0.956689 -0.0319929 182 183 190
-10.2213 4.07298 -3.09388 0.0437522 -0.830136 0.555842 164 164 167
-10.3786 4.0296 -3.01742 0.321477 -0.939019 -0.122044 186 186 196
-10.3792 4.02984 -3.01777 0.326986 -0.936317 -0.128027 186 186 196
-10.3792 4.02984 -3.01777 0.326986 -0.936317 -0.128027 186 186 196
-10.1556 4.05154 -3.09895 0.165099 -0.951327 0.260228 142 142 143
-10.2686 4.08383 -3.12906 0.404163 -0.914319 -0.0259507 150 149 151
-10.1068 4.04769 -3.12385 0.0234041 -0.744593 0.667108 115 113 115
-10.1061 4.05037 -3.17339 0.244752 -0.616914 0.748007 74 74 74
-10.3226 4.08081 -3.06408 0.0749174 -0.899221 0.431033 186 187 194
-10.4582 4.06593 -3.11101 0.0615365 -0.355712 0.932568 125 124 126
-10.3229 4.0803 -3.06322 0.076234 -0.901398 0.426227 183 183 189
-10.0087 4.60158 0.713406 0.576044 -0.257581 -0.775774 196 199 202
-10.5208 4.56426 0.832819 0.466755 -0.480209 -0.742657 195 196 196
-10.3665 4.31248 0.811113 0.441949 -0.440856 -0.781234 182 183 183
-10.3686 4.31917 0.486656 0.408544 -0.583956 -0.701489 189 191 193
-10.1704 4.66976 0.653391 0.58897 -0.230984 -0.774442 197 200 204
-10.1698 4.66796 0.653926 0.577731 -0.257584 -0.774518 197 200 204
-10.6839 4.4093 0.480201 0.401144 -0.596953 -0.694788 187 189 190
-10.1703 4.65114 0.639454 0.562305 -0.296604 -0.771906 197 200 204
-10.2682 4.30921 0.870046 0.479785 -0.460433 -0.746866 188 188 188
-10.1982 4.29898 0.920072 0.609224 -0.274941 -0.74381 187 188 188
-10.2762 4.3127 0.918745 0.623143 -0.238651 -0.744808 189 190 191
-10.2762 4.31249 0.918833 0.623464 -0.238752 -0.744506 189 190 191
-10.2528 4.28538 0.910759 0.610153 -0.272357 -0.743999 184 185 186
-10.2529 4.2854 0.910633 0.612917 -0.26583 -0.744088 184 185 186
-10.2752 4.31194 0.919067 0.626634 -0.249865 -0.738172 189 190 191
-10.2762 4.31249 0.918833 0.623464 -0.238752 -0.744506 187 188 188
-10.1394 4.32764 0.944859 0.634312 -0.211601 -0.743554 194 195 197
-10.2763 4.27917 0.891884 0.593061 -0.315299 -0.740854 184 185 186
-10.2724 4.32893 0.902958 0.644442 -0.18807 -0.741164 186 188 189
-10.2759 4.31249 0.918513 0.623053 -0.238682 -0.744873 187 188 188
-10.2762 4.31249 0.918833 0.623464 -0.238752 -0.744506 187 188 188
-10.276 4.31264 0.918777 0.62326 -0.238264 -0.744833 187 188 188
-10.1393 4.27586 0.962932 0.642006 -0.189724 -0.742855 186 188 188
-10.1464 4.26337 0.977021 0.625546 -0.227523 -0.746274 188 189 189
-10.2839 4.27857 0.897079 0.619437 -0.254646 -0.742599 186 186 187
-10.0212 4.5845 0.758833 0.579152 -0.241203 -0.778719 202 205 210
-10.2601 4.28692 0.915939 0.614711 -0.260272 -0.744573 184 185 186
-10.5369 4.27758 0.88007 0.64864 -0.415732 -0.637521 185 185 186
-10.509 4.28666 0.865518 0.44005 -0.462061 -0.769971 180 180 179
-10.7333 4.10272 -0.975935 0.792748 -0.299706 -0.53078 140 141 146
-10.5765 4.02082 0.738913 0.776409 0.555516 -0.297642 87 92 104
-10.5807 4.02521 0.693449 0.759712 0.627802 -0.16942 90 95 106
-10.6964 4.41293 0.476688 0.408047 -0.582788 -0.702749 185 187 187
-10.748 4.54691 0.740666 0.652568 -0.176118 -0.736979 194 195 197
-10.6088 4.03906 0.682822 0.784756 0.619246 0.0263165 104 107 117
-10.8064 4.05548 -0.177661 0.883129 0.428015 0.19206 41 58 99
-10.7439 4.06342 -0.151634 0.857588 0.407698 0.313569 71 86 121
-10.4494 4.2825 0.507656 0.462297 -0.632732 -0.621234 188 191 197
-10.5912 4.04295 0.670088 0.780547 0.576748 -0.241058 119 120 125
-10.4499 4.42392 0.810426 0.638687 -0.21118 -0.73992 194 196 198
-10.1719 4.3054 0.939775 0.637079 -0.204508 -0.743174 189 190 190
-10.2682 4.30921 0.870046 0.479785 -0.460433 -0.746866 188 188 188
-10.4377 4.22525 0.879803 0.624285 -0.237665 -0.744167 183 184 184
-10.4291 4.23109 0.871278 0.60835 -0.278893 -0.743054 179 179 179
-10.5754 4.26195 0.865163 0.630436 -0.219241 -0.744637 186 186 185
-10.6223 4.02414 -0.944023 0.78573 0.425969 -0.44853 48 58 78
-10.7091 4.05811 -0.955644 0.755405 -0.386019 -0.529483 64 71 87
-10.3652 4.3354 0.844808 0.479447 -0.361933 -0.799459 181 182 181
-10.3652 4.3354 0.844808 0.479447 -0.361933 -0.799459 181 182 181
-10.4043 4.32535 0.862239 0.641187 -0.198182 -0.741352 185 185 187
-10.3647 4.33562 0.844314 0.472962 -0.355727 -0.80608 181 182 181
-10.6266 4.11615 -0.989463 0.844132 -0.510517 -0.163746 155 152 147
-10.3698 4.31062 0.468749 0.475859 -0.442058 -0.760357 189 191 193
-10.7507 4.72766 0.73587 0.475028 -0.384026 -0.791753 189 190 191
-10.7504 4.72755 0.735807 0.474946 -0.383963 -0.791833 189 190 191
-10.0117 4.56317 0.745866 0.572471 -0.263955 -0.776276 199 202 205
-10.3698 4.30103 0.470866 0.467851 -0.459972 -0.75468 186 188 189
-10.7022 4.02301 -0.971941 0.585193 -0.363516 -0.724848 29 39 63
-10.4111 4.58545 0.854218 0.452581 -0.506744 -0.733745 194 195 196
-10.7929 4.65032 0.747413 0.671297 -0.127326 -0.73017 196 198 201
-10.6084 4.01803 -0.0328868 0.554657 -0.463171 -0.691251 60 71 98
-10.6432 4.00562 -0.0200098 0.542127 -0.488448 -0.683752 37 51 85
-10.6077 4.01878 -0.0329288 0.555258 -0.463792 -0.690352 62 73 100
-10.5989 4.00607 -0.00836665 0.895512 0.306007 -0.323138 48 57 80
-10.6196 4.00467 0.0317563 0.885113 0.318784 -0.339045 30 39 62
-10.9064 4.09627 -0.287755 0.790859 0.60833 0.0669105 32 40 55
-10.6939 4.09206 -0.00628694 0.787955 0.396599 -0.470994 138 140 146
-10.0868 4.73595 0.672929 0.441945 -0.464257 -0.767561 196 198 202
-10.1036 4.71516 0.660968 0.568326 -0.279714 -0.7738 198 201 205
-10.7409 4.0372 -0.257698 0.802909 0.557642 0.210648 37 45 61
-10.5461 4.30044 0.863459 0.439437 -0.463024 -0.769743 180 180 179
-10.7045 4.04916 -0.149111 0.836349 0.547988 0.0151731 57 68 95
-10.6781 4.0394 -0.138074 0.791882 0.598362 0.122003 55 65 90
-10.7451 4.37104 0.798433 0.614585 -0.263435 -0.743564 182 182 182
-10.9621 4.10976 -0.210966 0.793315 0.589579 0.151816 52 58 72
-10.6901 4.05833 -0.0711337 0.802669 0.571574 0.170368 86 94 114
-10.9472 4.10577 -0.207683 0.800914 0.566546 0.193811 52 57 68
-10.8492 4.08155 -0.241082 0.775802 0.582682 0.242102 48 57 75
-10.8402 4.08544 -0.224028 0.780177 0.624613 0.0343758 42 51 68
-10.6606 4.06288 -0.0344328 0.776897 0.496831 0.386769 136 145 172
-10.7402 4.06526 -0.251096 0.77439 0.541849 0.32668 73 75 81
-10.7485 4.37242 0.797967 0.632428 -0.247228 -0.734107 182 182 182
-10.6492 4.05704 -0.0118995 0.657517 0.204565 -0.725138 110 113 121
-10.6933 4.36869 0.793489 0.597174 -0.307813 -0.740699 182 182 182
-10.0733 4.12551 0.86399 0.577568 0.302743 0.75813 194 195 197
-10.7335 4.0511 -0.194591 0.804768 0.558646 0.200655 45 55 79
-10.2931 4.32041 0.867311 0.435369 -0.446937 -0.781474 183 183 183
-10.2931 4.32041 0.867311 0.435369 -0.446937 -0.781474 183 183 183
-10.3563 4.35833 0.826951 0.461692 -0.386135 -0.798587 185 185 185
-10.3563 4.35833 0.826951 0.461692 -0.386135 -0.798587 185 185 185
-10.773 4.61021 0.73176 0.663125 -0.149998 -0.733325 195 198 201
-10.7092 4.59198 0.790438 0.645199 -0.189719 -0.740085 193 196 199
-10.2785 4.30064 0.918295 0.621975 -0.284693 -0.72945 186 187 188
-10.2528 4.28538 0.910759 0.610153 -0.272357 -0.743999 184 185 186
-10.2739 4.2944 0.908025 0.632124 -0.21816 -0.743523 184 185 186
-10.478 4.55671 0.855663 0.518533 -0.468879 -0.715036 191 192 192
-10.4635 4.54329 0.838943 0.468678 -0.477057 -0.743477 191 192 192
-10.6987 4.63916 0.78975 0.647395 -0.184329 -0.739529 196 198 201
-10.85 4.71818 0.717091 0.368988 -0.612876 -0.698735 186 187 188
-10.1796 4.25682 0.955974 0.643399 -0.185274 -0.742773 188 189 190
-10.4765 4.20409 0.873739 0.635666 -0.210398 -0.742739 186 188 189
-10.6442 4.08211 0.721368 0.940748 0.290038 -0.175699 131 131 131
-10.77 4.75008 0.749783 0.470728 -0.39042 -0.791194 189 190 191
-10.7646 4.72926 0.754786 0.544216 -0.306704 -0.780873 191 192 193
-10.6574 4.7047 0.76716 0.446651 -0.442191 -0.777798 193 194 196
-10.4056 4.5823 0.825675 0.550096 -0.290422 -0.782975 194 196 197
-10.1124 4.68209 0.661509 0.618359 -0.232895 -0.750595 192 194 197
-10.0466 4.63589 0.68994 0.590909 -0.224969 -0.774736 204 208 214
-10.6336 3.99608 -0.0332524 0.517613 -0.542274 -0.661827 32 45 74
-10.4134 4.58618 0.815646 0.34001 -0.736283 -0.585047 193 195 196
-10.4333 4.60104 0.836216 0.449893 -0.599858 -0.661639 195 197 199
-10.0321 4.66723 0.690332 0.59092 -0.223773 -0.775074 194 197 200
-10.8216 4.05503 -0.221559 0.814455 0.506818 0.282488 48 57 78
-10.4338 4.60503 0.837264 0.569114 -0.247646 -0.784079 194 195 196
-10.5706 3.9987 -0.0394298 0.54264 -0.521716 -0.658297 45 55 81
-10.4212 4.37521 0.821296 0.578686 -0.353013 -0.73519 187 188 188
-10.4135 4.26295 0.506121 0.439979 -0.518337 -0.733311 180 180 180
-10.3646 4.2416 0.492452 0.441804 -0.517524 -0.732788 185 186 187
-10.3247 4.70124 0.5973 0.534282 -0.362778 -0.763501 193 196 197
-10.4224 4.27417 0.507802 0.424899 -0.550027 -0.718979 180 180 180
-10.3767 4.25044 0.495677 0.448585 -0.50163 -0.739688 185 186 187
-10.2268 4.65903 0.614853 0.552074 -0.322688 -0.768821 197 199 203
-10.2424 4.68455 0.594221 0.549109 -0.331939 -0.767004 193 196 198
-10.4094 4.26776 0.511629 0.51707 -0.432182 -0.738822 191 192 193
-10.2451 4.69005 0.593521 0.55699 -0.317706 -0.767349 197 200 203
-10.4062 4.25662 0.494498 0.490837 -0.495358 -0.716729 188 188 189
-10.3817 4.25024 0.496058 0.459142 -0.565042 -0.685504 191 192 193
-10.4771 4.2785 0.462161 0.419811 -0.56737 -0.708414 185 186 187
-10.3212 4.89295 0.639381 0.584833 -0.237602 -0.775574 199 202 206
-10.1456 4.19053 0.850401 0.555082 0.247055 0.794259 194 196 198
-10.3068 4.29181 0.474756 0.364535 -0.670889 -0.645773 185 186 187
-10.7866 4.40531 0.775424 0.410949 -0.536406 -0.73715 182 182 182
-10.5919 4.35706 0.798166 0.423544 -0.487303 -0.76364 182 183 182
-10.2321 4.58781 0.798612 0.567824 -0.256225 -0.782256 197 199 202
-10.7948 4.41051 0.793521 0.421451 -0.522127 -0.74146 184 185 184
-10.3156 4.82905 0.605413 0.541381 -0.343262 -0.767514 194 197 199
-10.8027 4.41304 0.783469 0.432557 -0.504313 -0.747371 182 182 182
-10.2267 4.23962 0.947494 0.642904 -0.185991 -0.743022 185 186 186
-10.751 4.42444 0.75524 0.414652 -0.513099 -0.751527 182 183 183
-10.2426 4.68426 0.59457 0.548018 -0.334767 -0.766556 193 196 198
-10.3174 4.82996 0.605572 0.54157 -0.343171 -0.767421 194 197 199
-10.0428 4.6917 0.702536 0.589905 -0.224068 -0.775761 199 202 206
-10.1988 4.74004 0.629109 0.58786 -0.236618 -0.773584 194 197 198
-10.1912 4.71696 0.615878 0.588345 -0.238675 -0.772583 193 197 200
-10.1898 4.72022 0.615887 0.588011 -0.23871 -0.772827 193 197 200
-10.2024 4.70323 0.630783 0.598356 -0.237092 -0.765348 197 200 203
-10.2396 4.70123 0.609526 0.581963 -0.253436 -0.772716 197 200 204
-10.2201 4.69473 0.612812 0.596491 -0.240351 -0.765787 197 200 204
-10.3177 4.2852 0.477831 0.366727 -0.66752 -0.648019 184 185 186
-10.4759 4.67035 0.561523 0.56331 -0.300199 -0.769781 195 198 202
-10.3261 4.28175 0.899202 0.694918 -0.325373 -0.641265 186 187 189
-10.4907 4.69101 0.573781 0.57058 -0.288731 -0.768812 192 195 198
-10.3986 4.67764 0.572356 0.548464 -0.334101 -0.766527 192 195 198
-10.338 4.27337 0.49425 0.423769 -0.55394 -0.716638 185 187 188
-10.3672 4.27523 0.493318 0.491226 -0.493784 -0.717547 188 189 190
-10.3662 4.28146 0.490928 0.405146 -0.579602 -0.707049 180 181 180
-10.3875 4.24526 0.498174 0.430395 -0.52171 -0.7366 180 180 180
-10.7497 4.42709 0.77554 0.418051 -0.502621 -0.756707 180 181 181
-10.5727 4.37159 0.812813 0.437489 -0.449782 -0.778652 180 181 180
-10.7669 4.70945 0.711251 0.41398 -0.600117 -0.684456 192 194 196
-10.4131 4.68056 0.570011 0.560265 -0.307089 -0.769285 192 195 198
-10.5819 4.3749 0.811901 0.437161 -0.450692 -0.77831 180 181 180
-10.7737 4.69658 0.738665 0.450224 -0.439648 -0.77718 188 189 190
-10.6186 4.65195 0.782877 0.400498 -0.621147 -0.673631 196 197 199
-10.4805 4.575 0.815125 0.465768 -0.484629 -0.740402 190 191 191
-10.7925 4.44345 0.771832 0.409579 -0.537631 -0.73702 180 181 181
-10.8229 4.41484 0.751819 0.386792 -0.582614 -0.71481 180 180 180
-10.7997 4.42813 0.792374 0.492678 -0.532379 -0.688361 180 181 181
-10.3919 4.70792 0.603122 0.596219 -0.280203 -0.752336 192 195 198
-10.3786 4.68457 0.590539 0.582947 -0.284761 -0.760975 196 199 202
-10.4065 4.69539 0.585882 0.623353 -0.236494 -0.74532 192 195 198
-10.7995 4.42818 0.792467 0.492005 -0.533913 -0.687654 180 181 181
-10.6366 4.36256 0.817003 0.537888 -0.441825 -0.71796 180 180 180
-10.0674 4.56428 0.901322 0.439308 -0.442304 -0.781905 188 189 190
-10.5191 4.34495 0.806532 0.51828 -0.485063 -0.704343 184 185 185
-10.6202 4.30303 0.824893 0.427228 -0.477482 -0.76778 183 183 182
-10.0783 4.47584 0.931222 0.570831 -0.22991 -0.788222 198 200 201
-10.489 4.34291 0.840499 0.428872 -0.467484 -0.772999 180 181 180
-10.4784 4.34929 0.865052 0.485532 -0.31866 -0.814073 180 181 181
-10.5754 4.37257 0.812579 0.44353 -0.434052 -0.784143 180 181 180
-10.501 4.59515 0.830336 0.518274 -0.415489 -0.747504 186 188 188
-10.5936 4.65452 0.803028 0.477119 -0.494153 -0.726753 190 191 192
-10.5484 4.35338 0.818109 0.485967 -0.441632 -0.754186 180 181 180
-10.3889 4.24443 0.888053 0.616542 -0.256861 -0.744243 182 182 182
-10.3522 4.30431 0.864583 0.542108 -0.370693 -0.754126 181 181 180
-10.4258 4.24017 0.513151 0.521146 -0.523489 -0.674067 191 193 198
-10.4711 4.25661 0.503491 0.451428 -0.500261 -0.738885 179 180 180
-10.0452 4.54516 0.934199 0.504451 -0.383982 -0.773361 191 193 194
-10.4503 4.24145 0.491017 0.434955 -0.61698 -0.655858 184 184 184
-10.1108 4.51725 0.947538 0.554739 -0.265605 -0.788491 191 193 193
-10.2742 4.61364 0.645509 0.602261 -0.197226 -0.773553 198 202 207
-10.8151 4.65894 0.742457 0.66573 -0.140218 -0.7329 198 200 203
-10.1141 4.55796 0.918007 0.44056 -0.439455 -0.782807 190 192 193
-10.3379 4.31007 0.776528 0.576025 0.302531 0.759388 197 199 203
-10.1751 4.19771 0.873883 0.526081 0.188995 0.829168 195 198 200
-10.3379 4.26177 0.478443 0.463154 -0.471561 -0.750413 187 189 191
-10.4012 4.6117 0.839818 0.409458 -0.514713 -0.753269 192 193 194
-10.2747 4.63203 0.628696 0.633937 -0.414249 -0.653086 201 205 214
-10.4879 4.34291 0.840071 0.428651 -0.468007 -0.772806 180 181 180
-10.7383 4.76329 0.733527 0.452273 -0.432675 -0.779899 192 194 195
-10.7339 4.76141 0.732318 0.448848 -0.440268 -0.777624 192 194 195
-10.0196 4.5324 0.890125 0.430541 -0.442112 -0.786875 186 187 187
-10.2998 4.63782 0.825358 0.449692 -0.429134 -0.78334 192 194 195
-10.3985 4.20732 0.875212 0.46695 0.162666 0.869194 194 195 196
-10.489 4.34291 0.840499 0.428872 -0.467484 -0.772999 180 181 180
-10.7303 4.7863 0.711565 0.548297 -0.221703 -0.806361 197 199 203
-10.063 4.54665 0.739636 0.581786 -0.238124 -0.777703 195 198 200
-10.5912 4.00663 0.991967 0.788787 0.605679 0.104732 65 76 101
-10.5912 4.00663 0.991967 0.788787 0.605679 0.104732 65 76 101
-10.3313 4.58803 0.812444 0.453961 -0.509832 -0.730747 195 196 198
-10.0054 4.54594 0.73315 0.579186 -0.246468 -0.777044 195 198 201
-10.5006 4.25299 0.465409 0.411709 -0.586145 -0.697804 179 180 179
-10.3545 4.85051 0.620439 0.585936 -0.358746 -0.726623 196 199 202
-10.325 4.85519 0.641096 0.596229 -0.306965 -0.741811 196 199 202
-10.3184 4.58939 0.839232 0.44967 -0.514685 -0.729997 194 196 197
-10.1622 4.11761 0.899233 0.520409 0.178089 0.83514 195 196 197
-10.5392 4.29157 0.87649 0.467964 -0.394496 -0.790811 180 180 179
-10.3127 4.24884 0.484827 0.42968 -0.524624 -0.734946 184 184 185
-10.4951 4.5759 0.876303 0.471456 -0.462698 -0.750759 192 193 193
-10.2963 4.24722 0.478733 0.441463 -0.519647 -0.73149 187 189 191
-10.3258 4.61277 0.824607 0.447833 -0.434341 -0.781533 195 197 198
-10.3635 4.27838 0.909795 0.704029 -0.309337 -0.639261 185 186 187
-10.3551 4.25971 0.895867 0.683287 -0.350546 -0.640497 185 186 188
-10.3987 4.28219 0.878057 0.467211 -0.460408 -0.75481 180 180 180
-10.414 4.27857 0.891764 0.77095 -0.137136 -0.621957 184 184 186
-10.3629 4.27462 0.881261 0.641859 -0.195362 -0.741519 182 183 184
-10.4863 4.59677 0.850664 0.529783 -0.333645 -0.779751 193 195 195
-10.4142 4.2347 0.868526 0.615517 -0.261982 -0.743306 182 182 182
-10.5205 4.27853 0.874884 0.602477 -0.288952 -0.743995 180 180 179
-10.5186 4.28429 0.886502 0.601263 -0.290066 -0.744543 182 182 183
-10.3511 4.2456 0.88062 0.638697 -0.203569 -0.742042 181 181 182
-10.3522 4.30431 0.864583 0.542108 -0.370693 -0.754126 181 181 180
-10.4152 4.22916 0.508364 0.460868 -0.4736 -0.750535 188 189 190
-10.7315 4.36291 0.80243 0.622813 -0.243002 -0.743676 180 180 180
-10.7467 4.36863 0.806668 0.52946 -0.457799 -0.714208 180 180 180
-10.3054 4.6172 0.65117 0.592122 -0.304755 -0.746 197 202 206
-10.6179 4.34049 0.818584 0.438962 -0.469406 -0.76614 180 180 179
-10.556 4.32976 0.839595 0.42895 -0.470074 -0.771384 180 180 179
-10.5592 4.33111 0.839983 0.442804 -0.474036 -0.761061 180 180 179
-10.4377 4.29758 0.870163 0.452641 -0.431074 -0.780571 180 180 180
-10.4247 4.29394 0.867684 0.440307 -0.459383 -0.771426 180 180 180
-10.4863 4.29397 0.885367 0.59596 -0.303528 -0.74344 180 180 180
-10.4011 4.28376 0.873621 0.48533 -0.32433 -0.811951 180 180 180
-10.388 4.26918 0.893799 0.73117 -0.2406 -0.638358 184 184 185
-9.58149 3.9051 -3.29817 0.961979 0.0786871 0.261544 18 19 19
-9.55848 3.77277 -3.26004 0.999797 0.0131693 0.0152448 48 48 51
-9.79691 3.92844 -3.10016 0.188678 0.112715 0.975549 35 36 36
-9.56321 3.84543 -3.29274 0.999855 0.00719373 0.0154522 36 36 38
-9.61707 3.96979 -3.10486 0.170741 -0.0136946 0.985221 43 43 43
-9.5545 3.93874 -3.30018 0.999622 0.0137533 0.0238186 55 55 58
-9.43451 3.96861 -3.21583 0.148678 0.256547 0.955028 11 11 11
-9.50008 3.98302 -3.08729 0.266986 0.196289 0.943498 86 85 84
-9.89006 3.98985 -3.18868 0.237003 0.219565 0.946373 46 47 48
-9.57139 3.62012 -3.25846 0.998795 0.00262939 0.0489974 36 36 37
-9.55107 3.76878 -3.2967 0.999908 0.000301849 0.0135552 22 23 24
-9.56209 3.76125 -3.29106 0.999795 0.0123827 0.0159845 27 27 29
-9.62581 3.81168 -3.22434 0.992769 0.0533463 0.107531 105 110 116
-9.623 3.8241 -3.24414 0.999913 0.00958876 0.00911522 97 100 107
-9.55202 3.85284 -3.29868 0.999912 -0.00501614 0.01229 32 32 34
-9.78487 3.96205 -3.11051 0.315356 0.0803102 0.945569 39 39 40
-9.56841 3.76453 -3.25217 0.99994 0.00311664 0.0105468 74 75 80
-9.54797 3.82253 -3.29163 0.999915 -0.00205361 0.0128487 34 34 36
-9.57843 3.86771 -3.29146 0.99975 0.0123564 0.0186574 42 42 44
-9.5866 3.87265 -3.25687 0.999834 0.0102748 0.0150587 84 87 93
-9.85407 3.99158 -3.23922 0.313649 0.360007 0.878646 34 35 34
-9.56734 3.66161 -3.16341 0.999938 -0.0111383 0.000412822 22 23 23
-9.85365 3.99224 -3.23956 0.265244 0.274162 0.924381 34 35 34
-9.57489 3.83814 -3.28703 0.999762 0.0129569 0.0175679 19 19 19
-9.90519 3.91248 -3.05992 0.0805591 -0.212302 0.973878 30 31 32
-9.63286 3.82925 -3.21009 0.999302 0.00470554 0.0370715 127 130 142
-9.90357 3.954 -3.12504 0.236569 0.275757 0.931662 31 32 32
-9.86771 3.96839 -3.15412 0.244308 0.230383 0.941933 44 46 47
-9.55127 3.8104 -3.27254 0.999827 0.00982696 0.0158187 45 45 49
-9.80778 3.94581 -3.13032 0.243022 0.229131 0.942571 35 36 37
-9.62887 3.84138 -3.22893 0.99903 0.023455 0.0372787 116 118 127
-9.55885 3.62681 -3.26016 0.999414 0.0109456 0.0324287 28 28 29
-9.88696 3.93572 -3.1555 0.2092 0.161911 0.964376 29 29 29
-9.61854 3.77968 -3.2149 0.999399 0.0309932 0.0155134 105 110 117
-9.79483 3.97795 -3.14834 0.448255 0.301657 0.841469 28 29 30
-9.79976 3.95485 -3.09002 0.303105 0.107401 0.946886 39 40 40
-9.57782 3.8679 -3.29219 0.999713 0.0121792 0.0206311 41 41 44
-9.61881 3.96949 -3.10633 0.176133 -0.0177052 0.984207 43 43 43
-9.56336 3.84548 -3.2929 0.999837 0.00842686 0.0159713 36 36 38
-9.55415 3.58318 -3.27757 0.999964 -0.00384481 0.0075647 24 25 24
-9.56571 3.74933 -3.27275 0.999791 0.0138284 0.015054 40 40 43
-9.56905 3.80685 -3.27773 0.999659 0.0117107 0.0233219 44 44 47
-9.54971 3.87927 -3.29413 0.998566 0.0138478 0.0517084 41 42 43
-9.59268 3.9471 -3.07064 0.13771 -0.00871266 0.990434 47 47 47
-9.03768 3.97254 -3.24457 0.181359 0.234493 0.955051 32 32 31
-9.55129 3.78261 -3.27253 0.999838 0.00906254 0.0155614 53 54 57
-9.55014 3.796 -3.29518 0.999916 -0.000798237 0.0129161 26 26 27
-9.74521 3.96264 -3.11575 0.310397 0.0695102 0.948062 44 45 45
-9.57299 3.62053 -3.25876 0.998925 0.00396332 0.0461829 36 36 37
-9.77094 3.96854 -3.13852 0.403906 0.369064 0.83705 43 44 44
-9.56277 3.87248 -3.28998 0.99937 0.0269684 0.0230666 42 42 45
-9.62239 3.7394 -3.1988 0.972843 0.211967 0.0929899 108 112 118
-9.56448 3.7004 -3.20583 0.951997 0.276614 0.1311 84 86 92
-9.5879 3.72333 -3.2027 0.947709 0.285044 0.14352 100 102 110
-9.56325 3.70818 -3.28423 0.988062 0.128953 0.084289 18 17 19
-9.53963 3.61654 -3.27742 0.999898 0.0065142 0.0127258 22 22 22
-9.56227 3.57381 -3.267 0.99995 -0.00882747 0.00468695 24 25 24
-9.5688 3.99408 -3.09253 0.205438 0.0875465 0.974747 107 106 107
-9.7614 3.98105 -3.14977 0.329956 0.0760771 0.940926 53 54 54
-9.72022 3.9647 -3.13936 0.239285 0.181534 0.953828 42 43 44
-9.55226 3.65394 -3.30285 0.999943 -0.0029178 0.0102901 14 14 14
-9.53167 3.59272 -3.13183 0.999691 0.00455083 0.0244228 34 35 34
-9.59303 3.62099 -3.26357 0.999724 0.0125739 0.0198475 24 25 24
-9.59835 3.60684 -3.25344 0.999726 0.0115905 0.0203378 33 34 33
-9.58502 3.61326 -3.25535 0.998941 0.00264765 0.045932 33 34 34
-9.52338 3.64688 -3.29279 0.655074 0.355963 0.66646 15 15 15
-9.56032 3.65811 -3.25723 0.9998 0.0145469 0.013714 37 37 39
-9.58476 3.61267 -3.25267 0.999551 0.00991099 0.0282631 34 35 35
-9.53201 3.59348 -3.13209 0.999816 0.00654553 0.0180396 34 35 34
-9.51995 3.5706 -3.14134 0.999904 0.0104665 0.00905441 66 63 67
-9.55677 3.623 -3.14545 0.996643 0.0306055 0.0759385 75 75 84
-9.52807 3.59261 -3.12953 0.999571 0.00502089 0.0288542 34 34 34
-9.57425 3.59416 -3.26328 0.999584 0.00403966 0.0285384 29 30 29
-9.59226 3.94612 -3.0711 0.137315 -0.00942986 0.990483 46 46 46
-9.53616 3.73237 -3.27166 0.999872 0.00609852 0.0147502 52 51 56
-9.56093 3.67539 -3.28779 0.999925 0.00186336 0.0121157 14 14 14
-9.56469 3.60248 -3.27025 0.999957 0.00268169 0.00884696 25 26 25
-9.53103 3.5926 -3.13213 0.999758 0.00523156 0.0213635 34 35 34
-9.47817 3.94599 -3.09062 0.310487 0.125703 0.94223 36 36 36
-9.56119 3.92737 -3.32495 0.896759 0.378063 0.229981 23 23 25
-9.53894 3.90819 -3.34136 0.841497 0.462569 0.279129 15 15 15
-9.63239 3.77038 -3.19675 0.997724 0.0625008 0.0253282 88 91 98
-9.55138 3.63654 -3.27188 0.99978 0.0149417 0.0147256 21 21 21
-9.55914 3.52966 -3.24242 0.82281 -0.077228 0.563044 18 18 18
-9.00021 3.97286 -3.23306 0.271828 0.328685 0.904476 26 26 26
-9.56257 3.69032 -3.25307 0.999939 0.00414433 0.010235 65 65 70
-9.5459 3.68426 -3.29256 0.895292 0.196246 0.399925 12 12 13
-9.566 3.64438 -3.24717 0.99812 0.0488866 0.036964 46 46 49
-9.56594 3.99279 -3.09408 0.189388 0.0930125 0.977487 103 101 102
-9.56934 3.80692 -3.27779 0.999788 0.0129564 0.0160199 44 44 47
-9.59214 3.98539 -3.33313 0.999703 0.0127517 0.0207665 29 29 30
-9.57603 3.62548 -3.2598 0.998661 0.000541739 0.0517275 36 37 37
-9.56298 3.63177 -3.21329 0.999938 0.00707738 0.00861114 69 71 76
-9.54233 3.64755 -3.17834 0.999831 0.01435 0.0114972 35 33 37
-9.55191 3.6094 -3.27347 0.999726 0.00763719 0.0221081 23 24 24
-9.58366 3.80123 -3.27698 0.999813 0.0128565 0.0144478 15 15 15
-9.57231 3.87613 -3.30627 0.753815 0.646008 0.120155 40 39 41
-9.57351 3.6745 -3.1701 0.937349 0.313709 0.151534 23 23 23
-9.63641 3.9589 -3.10305 0.299643 0.0546162 0.952487 56 57 57
-9.4936 3.98065 -3.08703 0.262304 0.197884 0.944478 85 84 84
-9.55261 3.7195 -3.29639 0.90854 0.190956 0.371605 13 14 14
-9.67787 3.97926 -3.18472 0.306689 0.375431 0.874639 29 29 30
-9.72048 3.96577 -3.13997 0.227317 0.166279 0.95952 42 43 44
-9.78271 3.98886 -3.16666 0.441117 0.334014 0.832977 52 54 54
-9.54437 3.63235 -3.15335 0.999957 -0.00904108 0.00213684 54 53 59
-9.57566 3.96149 -3.33106 0.9997 0.0136221 0.0203371 37 37 38
-9.55755 3.65355 -3.2573 0.999796 0.0146421 0.0138968 35 35 37
-9.61652 3.75111 -3.21438 0.974474 0.2046 0.0924131 105 109 116
-9.54874 3.89838 -3.32435 0.876513 0.413251 0.246876 21 21 22
-9.54351 3.6317 -3.15147 0.998474 -0.0162544 0.0527767 56 55 61
-9.54528 3.63235 -3.15248 0.998469 -0.0162152 0.0528738 55 54 61
-9.88692 3.9793 -3.1733 0.282136 0.34934 0.89351 24 26 27
-9.78705 3.97925 -3.21712 0.241985 0.237575 0.940745 34 35 35
-9.70323 3.97302 -3.166 0.244513 0.238582 0.939836 36 37 37
-9.5915 3.92073 -3.27642 0.767378 0.251007 0.590022 50 48 51
-9.59344 3.93865 -3.30079 0.999808 0.0103428 0.0166407 26 27 26
-9.57316 3.9067 -3.30673 0.999278 0.0186785 0.0330915 19 20 20
-9.58376 3.95219 -3.31969 0.999732 0.0126909 0.0193376 52 52 55
-9.56397 3.91415 -3.30072 0.921798 0.293497 0.253274 50 50 52
-9.46024 3.23973 2.44219 0.730561 -0.287717 0.619273 36 52 89
-9.51778 3.28024 2.51127 0.720809 -0.318257 0.615749 42 60 104
-9.45864 3.24262 2.47024 0.692538 -0.390439 0.606588 42 60 102
-9.6371 3.32355 2.58966 0.718775 -0.327943 0.613038 44 61 105
-9.58934 3.34369 2.60438 0.717216 -0.335787 0.610613 35 51 87
-9.59083 3.3443 2.60421 0.723329 -0.320309 0.611716 39 57 96
-9.61294 3.36802 2.63013 0.766634 -0.203628 0.60894 44 62 104
-9.65722 3.33377 2.62799 0.723986 -0.319457 0.611385 43 61 104
-9.63411 3.30832 2.6007 0.718583 -0.330499 0.61189 38 55 95
-9.67446 3.32339 2.64771 0.74634 -0.256007 0.614359 37 55 94
-9.66855 3.33794 2.66185 0.76166 -0.204022 0.61502 44 64 108
-9.11938 3.34567 2.3258 0.722502 -0.305283 0.620317 35 48 75
-9.56279 3.35584 2.61358 0.724226 -0.313649 0.614102 45 63 106
-9.58198 3.34578 2.60563 0.721279 -0.319557 0.614524 44 63 105
-9.09428 3.31023 2.31102 0.742454 -0.285933 0.605809 34 48 80
-9.41291 3.27304 2.44442 0.719619 -0.317441 0.61756 39 57 97
-9.08932 3.31649 2.32834 0.736249 -0.269889 0.620562 40 56 92
-9.01916 3.2562 2.30053 0.723129 -0.307721 0.618379 43 62 103
-9.41401 3.27757 2.47272 0.718939 -0.323238 0.61534 42 60 103
-9.39444 3.26916 2.46422 0.719001 -0.323128 0.615326 39 57 98
-9.59565 3.32339 2.56116 0.718975 -0.325322 0.614199 37 55 94
-9.46423 3.25845 2.46075 0.720345 -0.316005 0.617449 38 56 95
-9.47158 3.21363 2.41766 0.833722 0.156192 0.529634 35 52 87
-9.44291 3.31657 2.48972 0.720347 -0.319091 0.615858 45 64 109
-9.4366 3.31252 2.48657 0.729483 -0.294145 0.617522 45 64 109
-9.62966 3.39195 2.63063 0.729167 -0.326462 0.601447 42 59 101
-9.02669 3.20133 2.26916 0.728552 -0.318831 0.606266 38 55 94
-9.57089 3.26692 2.52936 0.720182 -0.320864 0.615129 41 60 102
-9.50548 3.41037 2.51451 0.717191 -0.325103 0.616397 41 58 98
-9.74251 3.27451 2.70546 0.747959 -0.257381 0.611811 41 61 103
-9.89373 3.3289 2.85333 0.720486 -0.346915 0.600458 35 52 91
-9.62785 3.46413 2.62875 0.829864 0.0681644 0.553786 32 46 77
-9.60371 3.33066 2.59309 0.718056 -0.331672 0.611874 40 58 98
-9.88438 3.95692 2.02927 0.233874 0.203572 -0.950716 187 190 196
-8.99924 3.23469 2.27708 0.656415 -0.467627 0.591983 40 56 94
-9.0216 3.25182 2.27539 0.643823 -0.492872 0.585294 40 56 93
-9.29453 3.33799 2.42604 0.723369 -0.310251 0.616832 44 62 103
-9.51859 3.4148 2.5202 0.717203 -0.325029 0.616422 41 59 98
-9.13585 3.28438 2.35995 0.717381 -0.324995 0.616233 40 57 98
-9.11586 3.4667 2.891 0.898086 0.367742 -0.24126 52 65 99
-9.15476 3.2467 2.34819 0.718756 -0.320537 0.616964 43 61 102
-9.627 3.28702 2.58144 0.751506 -0.245886 0.612191 38 56 96
-9.95043 3.40092 2.87163 0.719835 -0.346174 0.601665 28 44 80
-9.17964 3.22659 2.35399 0.719117 -0.318694 0.617499 41 59 99
-9.61192 3.36562 2.60206 0.717363 -0.333354 0.611772 35 51 87
-9.94514 3.81244 2.94719 0.791042 0.592185 -0.153524 99 105 119
-9.9131 3.95411 2.01488 0.0515242 -0.599095 -0.799018 187 189 195
-9.46474 3.35156 2.50285 0.718261 -0.32601 0.614669 41 58 97
-9.62742 3.40434 2.61508 0.677536 -0.431095 0.595905 36 53 89
-9.63651 3.40613 2.615 0.678958 -0.427314 0.597008 34 50 84
-9.60877 3.38768 2.61901 0.664291 -0.463053 0.586771 41 57 97
-9.02871 3.21482 2.25977 0.659586 -0.458526 0.595567 34 48 81
-9.11582 3.33446 2.36065 0.720228 -0.310894 0.620175 41 58 94
-9.09337 3.33652 2.33921 0.722014 -0.309918 0.618584 36 50 80
-9.10075 3.32935 2.35414 0.660105 -0.460756 0.593267 35 49 80
-9.02163 3.22306 2.27034 0.659372 -0.460027 0.594646 33 47 80
-9.09943 3.32662 2.32811 0.786314 -0.270548 0.55544 40 55 87
-9.64344 3.3457 2.63882 0.746297 -0.255987 0.61442 36 54 92
-9.11934 3.35769 2.33946 0.722098 -0.308049 0.619419 36 50 79
-9.62941 3.4237 2.6341 0.691802 -0.393832 0.605233 36 51 87
-9.09621 3.34084 2.34185 0.643297 -0.494636 0.584383 31 42 68
-9.00218 3.20829 2.27164 0.719309 -0.315602 0.618862 41 58 98
-9.09611 3.34092 2.34158 0.644467 -0.492209 0.585144 31 42 68
-9.50918 3.39824 2.52739 0.717406 -0.326456 0.61543 37 53 87
-9.62512 3.4334 2.62071 0.668955 -0.450019 0.591593 36 50 85
-9.09287 3.33963 2.34016 0.655146 -0.469647 0.59179 31 42 68
-9.63795 3.4212 2.60833 0.666697 -0.449096 0.594835 41 58 98
-9.60618 3.41634 2.62497 0.674162 -0.440181 0.593082 31 44 76
-9.11548 3.30582 2.35581 0.722763 -0.311187 0.61707 40 57 93
-9.6293 3.4241 2.63415 0.69052 -0.397111 0.604553 36 51 87
-9.03599 3.16218 2.25374 0.655059 -0.470189 0.591456 31 45 79
-9.03555 3.16134 2.2536 0.655075 -0.470108 0.591502 31 45 79
-9.03469 3.16113 2.25367 0.654473 -0.471451 0.591099 31 45 79
-9.42536 3.29034 2.4386 0.719545 -0.315416 0.618682 42 60 102
-9.00011 3.16483 2.25372 0.719611 -0.313536 0.61956 39 56 96
-8.99793 3.16417 2.25324 0.719786 -0.313715 0.619267 39 56 96
-9.12104 3.34623 2.32615 0.722434 -0.305135 0.620469 35 48 75
-9.42127 3.29305 2.46477 0.719021 -0.320835 0.616501 42 60 102
-9.429 3.29557 2.46796 0.721422 -0.322236 0.612955 45 65 110
-9.41961 3.29262 2.4641 0.722337 -0.322795 0.611582 42 60 102
-9.61673 3.36925 2.60179 0.723057 -0.317698 0.613398 37 53 90
-9.46479 3.35349 2.50374 0.71806 -0.326006 0.614906 41 58 97
-9.3978 3.25594 2.45012 0.719555 -0.319605 0.616517 41 60 102
-9.11324 3.2766 2.35056 0.726505 -0.301825 0.617327 45 63 106
-9.40119 3.25517 2.45129 0.719737 -0.319674 0.616268 41 59 100
-9.95479 3.96799 2.05799 0.0492947 -0.604184 -0.795319 182 185 190
-9.62008 3.37495 2.6085 0.721486 -0.367484 0.586868 42 60 101
-9.13053 3.34953 2.32968 0.632994 -0.512986 0.579796 35 47 75
-9.03163 3.18785 2.25613 0.748007 -0.319586 0.581678 37 53 88
-9.0321 3.1882 2.257 0.671528 -0.432157 0.601905 29 44 74
-9.02119 3.18448 2.25205 0.687989 -0.393005 0.610097 30 44 74
-8.99532 3.17776 2.26671 0.721424 -0.317853 0.615237 39 56 94
-9.01558 3.1971 2.26468 0.672999 -0.429997 0.60181 38 55 92
-9.00355 3.19368 2.25974 0.7191 -0.314951 0.619436 41 59 98
-9.58606 3.28814 2.552 0.723681 -0.312651 0.615252 41 59 101
-9.11301 3.30478 2.35483 0.722562 -0.311071 0.617365 40 57 93
-9.11439 3.30557 2.3554 0.720527 -0.310064 0.620242 45 63 104
-9.84024 3.26102 2.80452 0.730295 -0.319058 0.604046 34 52 92
-9.7779 3.23457 2.69773 0.722445 -0.330664 0.607235 41 59 102
-9.75867 3.24356 2.67638 0.734813 -0.292317 0.612046 42 61 105
-9.79054 3.26776 2.67837 0.812167 -0.245145 0.529423 37 55 96
-9.84949 3.27678 2.7969 0.742427 -0.281419 0.607952 39 58 101
-9.14935 3.3178 2.37019 0.722552 -0.304688 0.620551 47 67 114
-9.03981 3.45217 2.72493 0.974264 0.157722 -0.16104 64 78 116
-9.09151 3.31081 2.33527 0.726898 -0.291486 0.621816 45 62 104
-9.27969 3.49002 2.88155 0.964056 0.0751109 0.254862 42 61 103
-9.14126 3.35587 2.33456 0.661469 -0.447803 0.601608 39 54 87
-9.15279 3.37455 2.32787 0.722395 -0.303151 0.621486 30 39 59
-9.86107 3.29502 2.7902 0.716605 -0.351546 0.602406 40 58 100
-9.85779 3.29722 2.81789 0.716518 -0.355813 0.599999 39 58 100
-9.67297 3.29042 2.64284 0.725524 -0.320528 0.608997 44 62 105
-9.02191 3.4484 2.68341 0.938715 -0.133395 0.317836 73 85 111
-9.23904 3.55407 2.97229 0.886292 0.35662 -0.295481 104 109 119
-9.09374 3.32513 2.32558 0.80259 -0.3023 0.51426 39 53 83
-9.63857 3.27627 2.59851 0.724942 -0.313591 0.613286 43 63 105
-9.98372 3.80317 2.92974 0.704047 0.662319 -0.256227 61 77 107
-9.1099 3.44792 2.86204 0.956585 0.242565 0.161577 47 64 104
-9.17551 3.47994 2.86342 0.818061 0.560032 -0.130922 40 57 95
-9.99238 3.81036 2.95233 0.751844 0.23186 -0.617229 73 85 109
-9.99488 3.80368 2.95126 0.347174 -0.301818 -0.887905 66 79 105
-9.07358 3.4429 2.81246 0.914975 0.394644 -0.0841181 45 63 105
-9.96667 3.29889 2.80977 0.718195 -0.345437 0.604044 31 47 85
-9.13025 3.52599 2.71957 0.922041 -0.195111 0.334323 113 117 127
-9.04701 3.48167 2.72655 0.860956 0.134006 0.49071 109 115 130
-9.00066 3.27053 2.27256 0.738777 -0.512244 0.437967 33 47 79
-9.67436 3.27293 2.62584 0.731346 -0.297871 0.613519 44 62 105
-9.68677 3.26256 2.64339 0.724724 -0.318677 0.610918 43 62 103
-9.66849 3.27459 2.65321 0.724108 -0.322346 0.609722 44 62 105
-9.68389 3.26523 2.67198 0.722141 -0.324204 0.611068 45 66 111
-9.76796 3.27926 2.68738 0.838456 -0.317152 0.443178 40 59 101
-9.75942 3.26335 2.69575 0.742203 -0.333258 0.581441 41 60 103
-9.07753 3.49357 2.71054 0.916729 -0.247512 0.3136 108 113 126
-9.67254 3.25484 2.60787 0.725453 -0.312606 0.613184 42 61 104
-9.08125 3.30831 2.29264 0.740704 -0.252015 0.622773 36 51 83
-9.09735 3.2967 2.29735 0.723327 -0.300931 0.621481 26 37 62
-9.87173 3.31461 2.81229 0.715628 -0.355798 0.60107 39 58 100
-9.86045 3.32882 2.82479 0.717311 -0.353108 0.60065 37 54 94
-9.06506 3.29404 2.30019 0.729858 -0.306647 0.610963 36 50 84
-9.16795 3.51239 2.80121 0.962014 0.186744 0.199136 95 102 119
-9.64096 3.24333 2.56559 0.716548 -0.332973 0.612934 38 56 97
-9.20673 3.51698 2.96147 0.913716 0.308678 -0.264275 83 96 122
-9.29902 3.55062 2.91574 0.92317 0.31453 -0.220972 71 83 111
-9.05761 3.48704 2.72805 0.864397 0.43455 0.252952 110 116 130
-9.1097 3.47324 2.85732 0.923191 0.311767 -0.224767 73 85 111
-9.11311 3.47437 2.85966 0.867776 0.458828 -0.190898 73 85 111
-9.88403 3.3611 2.85553 0.720247 -0.347139 0.600615 35 52 89
-9.30237 3.55168 2.91564 0.913916 0.338388 -0.224166 71 83 111
-9.10283 3.4708 2.85578 0.910966 0.342146 -0.230384 74 85 111
-9.55042 3.24253 2.50357 0.720735 -0.316881 0.616545 41 59 100
-9.64543 3.26071 2.58402 0.725456 -0.310198 0.614402 41 61 103
-9.1017 3.28782 2.36069 0.720522 -0.312061 0.619246 45 63 105
-9.07731 3.46579 2.74264 0.948025 -0.13627 0.287541 78 88 114
-9.58773 3.24036 2.53117 0.720727 -0.31926 0.615325 37 55 97
-9.05719 3.46961 2.75112 0.933759 -0.118342 0.337772 86 96 117
-9.10454 3.28521 2.31108 0.721735 -0.301965 0.622829 41 59 98
-9.0352 3.43621 2.69931 0.972847 0.178209 -0.147687 70 81 110
-9.86008 3.33319 2.8253 0.715716 -0.36129 0.597679 35 52 91
-9.6175 3.26623 2.56012 0.723776 -0.312585 0.615174 46 66 112
-9.67394 3.23448 2.56069 0.714887 -0.335321 0.613593 32 49 87
-9.09953 3.32678 2.32791 0.788673 -0.278892 0.547918 40 55 87
-9.59267 3.25983 2.55057 0.720092 -0.32319 0.614016 41 60 103
-9.67708 3.25312 2.58006 0.720704 -0.321523 0.614173 38 57 98
-9.98698 4.64465 0.729461 0.536759 -0.342937 -0.770898 196 199 202
-9.99235 4.57175 0.902445 0.430104 -0.43908 -0.788809 183 185 184
-9.77404 4.80904 0.768402 0.61326 -0.217846 -0.759246 206 210 216
-9.66156 4.75249 0.827193 0.564978 -0.268171 -0.78031 196 199 201
-9.76659 4.54439 0.920741 0.50511 -0.25957 -0.823097 190 191 191
-9.94066 4.62863 0.789312 0.40709 -0.522159 -0.749418 192 195 196
-9.96411 4.62054 0.718334 0.56059 -0.292597 -0.774678 196 200 203
-9.57001 4.72111 0.865921 0.572779 -0.249182 -0.780918 200 203 207
-9.53326 4.69493 0.908087 0.552871 -0.288467 -0.781742 195 198 200
-9.6529 4.69839 0.79001 0.637595 -0.445308 -0.628628 200 204 208
-9.59458 4.65705 0.896645 0.549725 -0.292942 -0.782296 197 200 203
-9.98449 4.57187 0.734209 0.60973 -0.172972 -0.773505 196 199 201
-9.60563 4.66945 0.915489 0.542707 -0.304576 -0.782753 197 200 203
-9.96224 4.56105 0.73786 0.584826 -0.237956 -0.775471 196 199 201
-9.94717 4.59242 0.738192 0.582842 -0.238004 -0.776949 196 199 202
-9.97668 4.60371 0.763722 0.593206 -0.222928 -0.773569 198 200 204
-9.82325 4.55602 0.92605 0.553533 -0.276987 -0.785416 201 203 205
-9.95157 4.61355 0.751578 0.579279 -0.243167 -0.778014 196 199 202
-9.92253 4.71065 0.748265 0.575886 -0.252907 -0.777427 199 203 206
-9.95256 4.71945 0.730533 0.544292 -0.512867 -0.663863 200 204 211
-9.92663 4.6976 0.712481 0.399295 -0.622376 -0.673211 200 203 208
-9.71983 4.60598 0.918513 0.545049 -0.298284 -0.783548 192 195 196
-9.65591 4.72829 0.809749 0.7344 -0.198198 -0.649133 205 209 215
-9.63376 4.69769 0.83609 0.596963 -0.486684 -0.637788 204 208 214
-9.76307 4.49208 0.991395 0.428545 -0.430938 -0.794129 189 190 190
-9.7615 4.4784 0.976517 0.430838 -0.430443 -0.793157 189 190 190
-9.94861 4.55261 0.910765 0.410926 -0.482788 -0.77334 186 188 188
-9.62235 4.70741 0.85964 0.565193 -0.263954 -0.781592 198 201 204
-9.61097 4.68324 0.87767 0.573249 -0.266751 -0.774745 198 200 203
-9.677 4.68845 0.808424 0.638375 -0.195561 -0.744469 201 205 210
-9.85492 4.5277 0.933967 0.44457 -0.427341 -0.787234 192 194 195
-9.57338 4.67654 0.904186 0.532098 -0.330176 -0.779651 195 197 199
-9.94724 4.55232 0.911179 0.402841 -0.501132 -0.765889 186 188 188
-9.95294 4.55515 0.909917 0.421639 -0.458362 -0.782384 186 188 188
-9.86717 4.65255 0.797055 0.489636 -0.434949 -0.755695 197 199 201
-9.94832 4.55358 0.908029 0.414086 -0.47579 -0.775988 186 188 188
-9.95486 4.55648 0.909141 0.525473 -0.341367 -0.779325 193 194 195
-9.87439 4.32924 0.975943 0.48576 -0.431051 -0.760416 190 191 191
-9.95635 4.57772 0.75301 0.563858 -0.2798 -0.77703 196 198 201
-9.96838 4.63934 0.731757 0.555408 -0.301354 -0.775053 197 200 203
-9.92809 4.63519 0.753403 0.571747 -0.26519 -0.776389 200 203 207
-9.92067 4.61344 0.773626 0.432429 -0.477715 -0.764718 198 200 204
-9.83378 4.59101 0.782707 0.348635 -0.633752 -0.690516 190 192 193
-9.84264 4.58653 0.898652 0.278266 -0.764983 -0.580835 193 195 196
-9.5264 4.67556 0.895749 0.547238 -0.299597 -0.781519 195 198 200
-9.67579 4.54452 0.897403 0.485609 -0.345887 -0.802837 190 192 192
-9.78741 4.58715 0.884762 0.42524 -0.556738 -0.713592 193 195 197
-9.85708 4.62574 0.77635 0.46699 -0.401654 -0.787778 194 197 199
-9.85672 4.62736 0.794625 0.481039 -0.369193 -0.795172 195 197 199
-9.86596 4.62524 0.775484 0.392556 -0.554212 -0.733995 194 197 199
-9.91399 4.65098 0.738651 0.548722 -0.315735 -0.77409 197 200 203
-9.94098 4.64851 0.719546 0.53143 -0.357602 -0.767921 197 200 203
-9.87958 4.64943 0.789244 0.487682 -0.440234 -0.753897 197 200 202
-9.59421 4.57701 0.877908 0.456584 -0.496219 -0.738443 197 199 202
-9.63999 4.59859 0.910341 0.530543 -0.333297 -0.779383 195 197 200
