ply
format ascii 1.0
element vertex 746
property float x
property float y
property float z
property float nx
property float ny
property float nz
property uchar diffuse_red
property uchar diffuse_green
property uchar diffuse_blue
end_header
-3.72897 3.91997 6.42608 -0.085363 0.118032 -0.989334 87 87 86
-4.09808 3.86787 6.29347 0.117604 0.624445 -0.772164 86 86 87
-3.92561 3.75959 6.03556 -0.617542 0.206989 -0.758813 51 51 51
-3.91225 3.74201 6.0274 -0.540531 0.319401 -0.778338 46 47 47
-4.29627 3.93947 6.45787 -0.103928 0.0582595 -0.992877 145 144 145
-3.80785 4.01925 6.48504 0.84975 0.212376 -0.482515 186 186 185
-3.85707 4.0035 6.46017 0.446803 0.405104 -0.797658 184 184 184
-3.99083 3.97761 6.44252 -0.171702 0.147164 -0.974095 184 185 184
-4.35196 3.95026 6.43985 -0.132395 0.0503166 -0.989919 164 165 164
-3.78876 3.95929 6.45708 0.0402535 0.202813 -0.97839 162 162 162
-3.53911 3.93502 6.44814 0.0564 0.263402 -0.963036 89 89 89
-3.84554 3.98684 6.48839 0.14554 0.524306 -0.839 177 177 177
-4.38568 3.99333 6.43332 0.419956 0.192759 -0.886837 183 183 182
-3.91383 3.99293 6.47463 -0.154427 0.235746 -0.959467 186 187 186
-4.42699 3.96758 6.4499 -0.212857 0.194138 -0.957602 176 176 176
-4.14352 3.9971 6.44573 0.580905 0.200393 -0.788918 185 185 185
-4.22944 3.98535 6.47165 0.111327 0.388471 -0.914711 185 185 185
-3.95729 4.01362 6.46672 -0.470799 0.00910731 -0.882194 187 188 187
-4.145 3.80415 6.1797 0.263039 0.610053 -0.747427 66 66 67
-4.39972 3.95503 6.45877 -0.162624 -0.113992 -0.980081 165 164 164
-4.08795 3.95793 6.44262 0.220713 -0.944245 -0.244308 172 172 172
-3.88429 3.99267 6.47235 -0.426688 -0.024522 -0.904066 181 181 181
-3.94687 3.97852 6.49119 0.527598 0.582225 -0.618591 168 167 168
-3.93545 3.98369 6.45708 -0.281504 -0.228111 -0.932052 188 189 189
-4.00806 4.00963 6.4795 0.0956257 0.252403 -0.962885 184 185 184
-4.04211 4.01326 6.48674 0.105173 -0.0617934 -0.992532 184 185 184
-4.07722 4.0291 6.47913 0.789098 0.249895 -0.561139 184 184 184
-3.66119 3.97172 6.47519 0.0586657 0.532985 -0.844088 166 165 165
-3.94663 3.95913 6.46009 -0.101494 -0.0107453 -0.994778 172 172 172
-4.32988 3.87711 6.43601 0.705638 0.0892256 -0.702933 68 69 70
-3.55045 3.91219 6.44129 -0.00880224 0.103399 -0.994601 61 61 61
-3.79976 3.95692 6.43794 0.446247 0.19962 -0.872362 168 168 168
-4.14682 3.8623 6.30335 0.120826 0.586931 -0.80057 77 77 78
-3.57519 3.95864 6.46131 0.0510606 -0.096786 -0.993995 147 147 147
-4.13335 3.97132 6.44232 0.0568414 0.189722 -0.980191 183 183 183
-3.66797 3.59924 5.77816 0.800626 0.271492 -0.534125 65 66 66
-4.07634 3.80021 6.16007 0.1517 0.57991 -0.800432 61 61 62
-3.69231 3.94753 6.44347 -0.00810483 0.388293 -0.9215 144 144 144
-4.01845 3.97182 6.44007 -0.0342992 0.416936 -0.908288 181 181 181
-3.85 3.91451 6.41328 -0.462734 0.0324879 -0.885902 95 95 95
-3.61867 3.86819 6.41258 0.516274 0.28411 -0.807925 39 40 45
-3.78285 3.55999 5.67024 -0.00382727 -0.978141 -0.207906 136 136 136
-3.86409 3.75554 6.05106 -0.277594 0.6204 -0.733516 70 70 67
-3.56632 3.93973 6.47332 0.237166 -0.119498 -0.964092 81 81 81
-3.58511 3.93017 6.45321 0.177943 -0.0411454 -0.98318 75 75 74
-3.59805 3.92809 6.44974 0.00234595 0.151173 -0.988504 79 79 79
-4.01764 3.92976 6.39529 -0.199297 0.618557 -0.760045 165 166 165
-3.50684 3.94078 6.47427 0.00635177 0.451294 -0.892353 85 85 85
-3.66164 3.69571 5.97427 0.276477 0.56834 -0.774952 71 72 72
-3.72528 3.99822 6.49286 -0.550761 0.196725 -0.811148 185 186 186
-3.64417 3.96802 6.47998 0.0384702 0.194001 -0.980247 155 155 155
-3.70266 3.96241 6.47316 -0.102516 0.0914675 -0.990517 151 150 150
-3.97358 3.71258 5.94287 -0.573526 0.352368 -0.73953 44 45 43
-4.31672 3.80294 6.19486 -0.644678 0.218568 -0.732543 60 59 57
-3.58621 3.90539 6.45227 0.0374234 0.105148 -0.993752 57 58 58
-3.6156 3.92932 6.45006 -0.0209168 0.329439 -0.943945 81 81 81
-3.70783 3.50953 5.54922 0.268501 0.59175 -0.760092 138 138 138
-3.62531 3.94746 6.46771 0.523772 0.175081 -0.833672 110 110 110
-3.78383 3.96476 6.48099 -0.227895 0.353126 -0.907395 155 155 154
-3.55611 3.96637 6.47862 0.111778 -0.11298 -0.98729 150 150 150
-3.56787 3.94716 6.48121 0.00539602 0.51301 -0.858366 98 98 99
-3.54905 3.94268 6.48062 -0.0338629 0.496709 -0.867256 74 74 75
-3.70855 3.65808 5.89899 0.418207 0.601689 -0.680495 64 65 65
-3.51437 3.93549 6.45925 0.355495 0.304796 -0.883585 81 81 81
-3.52403 3.90774 6.44008 0.430025 0.0804345 -0.899227 59 59 59
-4.30154 3.88447 6.39267 0.33646 0.389231 -0.857493 29 29 28
-3.78377 3.95355 6.48019 0.125032 0.393805 -0.910651 126 126 125
-3.98353 3.83483 6.27492 -0.601222 0.321292 -0.731644 59 60 57
-3.71591 3.52321 5.62039 0.247677 0.530332 -0.810804 115 115 115
-3.75017 3.93332 6.46548 0.173803 0.458542 -0.871511 95 94 93
-4.29857 3.96688 6.41706 -0.215241 0.59263 -0.776184 181 182 181
-4.42394 4.00288 6.47225 -0.356425 0.151045 -0.922034 182 182 182
-4.04531 3.9465 6.43735 -0.0852393 0.617391 -0.782025 161 162 161
-3.53585 3.88586 6.43589 0.679543 0.196738 -0.706764 49 51 53
-3.57729 3.89558 6.45135 -0.359913 0.235123 -0.902873 42 43 45
-4.15799 3.81283 6.1809 -0.105228 0.629053 -0.770207 59 59 56
-3.12549 4.05719 6.49982 -0.788596 0.261461 -0.556557 177 178 177
-3.39788 3.82918 6.25431 0.144485 0.63204 -0.761347 57 58 61
-3.46117 3.99849 6.47907 0.244728 0.586534 -0.772066 181 182 181
-2.89082 3.53204 5.71663 -0.113629 0.465819 -0.877554 37 36 35
-3.2702 3.98616 6.48801 -0.30511 0.614749 -0.727318 165 166 165
-3.21057 3.94086 6.35893 -0.15498 0.616414 -0.77202 165 166 165
-3.29793 4.0043 6.46533 0.0770289 0.598405 -0.797482 182 182 181
-2.84547 3.70465 5.92397 -0.672366 0.292805 -0.679845 98 98 92
-3.35787 3.84421 6.27582 0.223884 -0.0430025 -0.973667 72 72 72
-2.83253 3.73424 5.92537 -0.667174 0.299135 -0.6822 80 81 77
-2.85182 3.69869 5.8453 -0.56281 0.400084 -0.72331 60 61 58
-2.95046 3.79314 6.07123 -0.718532 0.25171 -0.648348 77 78 76
-3.47394 3.93262 6.46354 0.0646542 0.29266 -0.954028 84 84 83
-2.87419 3.67803 5.80881 -0.71188 0.228827 -0.663977 67 67 65
-2.84119 3.52218 5.61542 0.103519 0.0283157 -0.994224 55 54 52
-2.84452 3.51976 5.61156 -0.0266165 0.0843934 -0.996077 55 53 52
-2.5416 3.71472 6.16048 -0.69234 0.0160447 -0.721393 32 32 31
-2.83412 3.50099 5.58353 0.107848 0.0369889 -0.993479 45 44 43
-2.83442 3.50187 5.58461 0.108479 0.038211 -0.993364 45 44 43
-2.83811 3.51168 5.59985 0.106984 0.0353877 -0.993631 49 48 47
-2.85055 3.56093 5.66644 0.0819881 -0.0313491 -0.99614 80 78 76
-2.83616 3.50006 5.58189 0.103255 0.0299334 -0.994204 45 44 43
-2.8382 3.5117 5.59954 0.104149 0.0300482 -0.994108 50 49 47
-3.00384 3.75771 6.02439 -0.736273 0.214763 -0.6417 72 73 70
-2.96928 3.99719 6.43782 -0.228588 0.648775 -0.725837 182 183 182
-2.84125 3.52211 5.61556 0.107155 0.0355066 -0.993608 55 54 52
-2.83418 3.50105 5.58332 0.108345 0.0379543 -0.993389 45 44 43
-3.20303 4.03729 6.48382 -0.939685 0.113083 -0.322807 182 184 183
-2.83765 3.51117 5.5988 0.0962019 0.0144815 -0.995257 49 48 47
-2.8344 3.50161 5.58474 0.107547 0.0363428 -0.993536 45 44 43
-2.86069 3.54386 5.68303 0.002523 0.153575 -0.988134 55 54 52
-2.88001 3.55271 5.70886 -0.0179611 0.39324 -0.91926 53 53 51
-3.23928 3.95841 6.48987 -0.549158 0.45243 -0.702661 120 119 117
-2.54021 3.96054 6.35064 0.30167 0.31827 -0.898721 177 178 177
-2.58712 3.98565 6.34657 0.358504 0.29621 -0.885288 183 184 183
-2.60063 3.97926 6.33799 0.536219 -0.387952 -0.749641 185 186 185
-3.37678 3.96485 6.46878 -0.0401437 0.18333 -0.982231 154 153 153
-2.62357 3.98446 6.34005 0.768445 0.247698 -0.590032 186 186 185
-2.51155 3.93856 6.36353 0.0344243 -0.153197 -0.987596 140 139 139
-2.5166 3.92411 6.34327 -0.019322 0.342815 -0.939204 122 121 121
-3.12884 3.81572 6.18225 0.0399312 0.468682 -0.882464 58 58 58
-3.41855 4.0027 6.48188 -0.568653 0.155594 -0.807728 182 182 182
-3.31543 3.98542 6.48366 0.167993 0.394815 -0.903272 170 170 170
-2.51821 3.91333 6.34667 0.434086 0.379044 -0.817249 85 85 85
-2.76592 3.92631 6.36337 0.18784 -0.959751 -0.208794 129 129 129
-2.53686 3.91673 6.34553 0.202367 0.356835 -0.911985 89 88 89
-2.58407 3.93713 6.36956 0.478698 0.429462 -0.765774 139 139 139
-2.62322 3.94842 6.36654 0.696608 0.186698 -0.692734 168 168 168
-2.51521 3.87556 6.32802 -0.0647932 0.498919 -0.864223 55 56 58
-2.51165 3.86696 6.30703 -0.0554903 0.0552381 -0.99693 46 47 48
-2.54025 3.87317 6.30107 -0.23809 0.476086 -0.846555 47 48 48
-2.54244 3.86136 6.29013 0.190362 0.431242 -0.881925 43 43 45
-2.56024 3.88735 6.29557 0.138273 0.491484 -0.85984 62 62 62
-2.64605 3.91596 6.36452 0.255118 0.417577 -0.872092 84 83 84
-2.76679 3.95011 6.3467 0.106707 0.618861 -0.778219 173 173 173
-2.84942 3.96607 6.35605 0.205077 0.388855 -0.898185 185 185 184
-2.86381 3.98597 6.34557 0.257407 0.367624 -0.893641 183 184 183
-3.11484 3.86954 6.25623 0.0341362 0.435373 -0.899603 86 86 86
-2.75642 3.92871 6.36393 0.200997 -0.952816 -0.227468 130 130 130
-2.7998 3.94146 6.38271 0.208499 -0.955721 -0.207669 146 146 146
-3.03651 3.95561 6.22987 0.661107 0.247363 -0.708342 182 182 181
-2.53054 3.72117 6.00717 0.197671 -0.779179 -0.594816 51 52 50
-2.60125 3.83059 6.23834 0.552031 0.170321 -0.816243 50 51 51
-2.7211 3.86616 6.26307 0.560425 -0.0449711 -0.826983 67 68 69
-3.14113 3.92897 6.32767 0.394861 0.201719 -0.896323 166 166 165
-2.91447 3.57981 5.6947 -0.129083 0.451877 -0.882692 49 49 47
-2.74459 3.85509 6.22029 0.35258 0.220825 -0.909353 88 88 88
-2.83817 3.84811 6.14669 0.142713 0.573812 -0.806457 121 120 120
-2.96073 3.97183 6.40597 0.103834 0.539834 -0.835343 179 179 179
-2.59143 3.80299 6.24307 0.55214 0.170756 -0.816078 47 48 46
-3.36092 3.94876 6.43536 -0.290446 0.172831 -0.941154 145 144 144
-2.73782 3.84043 6.24929 0.282796 0.0687131 -0.956716 79 80 79
-2.74603 3.81735 6.17108 0.368918 0.0890716 -0.925184 60 61 63
-2.79338 3.84207 6.21071 0.347395 0.237474 -0.907151 88 88 86
-2.77252 3.7909 6.1007 0.616569 0.0471826 -0.785886 53 53 57
-2.79167 3.75276 6.02538 0.39446 0.0649065 -0.916618 46 47 47
-2.74619 3.81156 6.22723 0.459242 -0.370905 -0.807172 53 54 57
-3.06913 3.97757 6.41045 0.651936 0.267602 -0.709485 179 179 179
-2.7222 3.81419 6.23953 0.85293 0.163442 -0.49578 51 52 56
-3.15136 4.0037 6.4074 -0.0010224 0.403974 -0.91477 183 184 183
-2.74024 3.86055 6.23353 0.470707 -0.0657818 -0.879834 80 79 80
-2.50608 3.56063 5.96658 -0.686405 -0.0302584 -0.72659 44 45 45
-3.41061 3.96984 6.48464 -0.142335 0.436239 -0.888502 150 149 150
-2.85643 3.71242 5.82965 0.648583 -0.0603533 -0.758748 75 75 75
-2.56347 3.91866 6.37069 0.561518 0.34229 -0.753349 70 70 71
-3.42725 3.92906 6.44817 0.309061 0.0383379 -0.950269 89 90 87
-2.97843 3.60505 5.77865 -0.361128 0.257533 -0.89625 80 80 77
-2.51739 3.73783 6.18169 -0.784986 -0.100167 -0.611361 36 36 35
-2.54626 3.6241 6.06099 -0.582947 0.231803 -0.778743 43 45 46
-2.75344 4.03846 6.47709 0.792229 0.217958 -0.569972 185 185 184
-2.76482 3.99714 6.41816 0.288219 0.486401 -0.82483 180 181 180
-2.50778 3.88356 6.34197 -0.100803 0.308031 -0.946021 42 43 48
-2.73779 3.95569 6.37335 0.27063 0.489195 -0.829125 169 169 169
-2.97621 3.84743 6.23681 -0.298485 0.523407 -0.798093 85 85 82
-3.40986 3.90364 6.39977 0.109244 0.623432 -0.774209 77 77 80
-2.78392 3.79485 6.08766 0.401526 0.125677 -0.907184 76 76 77
-3.0733 4.03738 6.40614 0.681958 0.220185 -0.697461 181 182 181
-2.7725 3.77647 6.0612 -0.102376 0.5948 -0.797328 52 53 54
-2.7587 3.81935 6.12122 0.121511 0.630584 -0.76655 68 68 70
-2.98914 3.90204 6.32009 -0.23531 0.122426 -0.964179 102 102 103
-3.32056 3.89065 6.41417 -0.39143 0.218941 -0.893782 73 74 74
-2.70358 3.87032 6.35612 0.830778 0.132875 -0.54051 51 52 56
-2.92766 3.93088 6.32402 0.196623 0.441235 -0.875586 165 165 165
-2.73333 3.76086 6.04502 -0.0668707 0.638918 -0.766363 51 52 54
-2.92048 3.92138 6.27196 0.127199 0.652808 -0.746768 174 174 174
-3.42687 3.85801 6.33253 0.47293 0.488617 -0.733206 67 69 70
-2.87967 3.87154 6.17966 -0.0484362 0.603949 -0.79555 149 149 149
-3.17661 3.92823 6.32684 -0.0156957 0.626757 -0.779057 168 167 168
-2.84116 3.79071 6.04277 0.111799 0.625177 -0.772434 53 53 53
-3.46132 3.93386 6.46027 -0.0357611 0.190244 -0.981085 81 80 81
-3.15727 3.89371 6.33026 -0.0360536 0.503627 -0.863168 87 88 87
-3.13862 3.89261 6.34694 0.015455 0.582363 -0.812782 56 56 56
-2.55188 3.91099 6.33514 0.233651 0.454569 -0.859519 88 87 88
-3.36203 3.93932 6.46512 -0.0436237 0.0899872 -0.994987 96 95 95
-3.23385 3.97456 6.46169 -0.324636 0.489525 -0.809307 166 166 166
-3.10036 3.91673 6.36213 0.448469 0.248237 -0.858635 102 102 103
-2.96516 3.89657 6.29811 -0.208461 0.573999 -0.791877 115 115 114
-3.06216 3.96574 6.21221 0.6618 0.247864 -0.70752 182 182 180
-2.85026 3.93688 6.3489 0.0104086 0.64521 -0.763934 166 165 166
-2.76578 3.93229 6.32796 0.168344 0.62458 -0.762601 166 166 166
-2.72207 3.93419 6.38415 0.329479 0.270036 -0.904723 120 120 120
-2.73018 3.92777 6.38972 0.24262 0.587298 -0.77215 85 85 86
-3.36368 3.9986 6.49488 -0.0811904 0.474376 -0.87657 178 179 178
-2.79941 3.76686 5.99448 -0.170833 0.605478 -0.777311 69 69 68
-2.68718 3.92163 6.3842 0.482861 0.451251 -0.750478 87 87 88
-2.66516 3.9015 6.38032 0.618457 0.040697 -0.784764 52 53 53
-2.60649 3.8811 6.34332 0.610853 0.172967 -0.772619 51 53 53
-2.51191 3.86162 6.32416 0.697803 0.175678 -0.694412 53 55 56
-2.68547 3.89442 6.39334 0.623475 0.0717274 -0.778546 58 59 62
-3.02284 3.81168 6.20623 -0.589157 0.568777 -0.573923 78 79 76
-2.98034 3.84501 6.25277 -0.542661 0.420822 -0.72693 95 95 92
-3.22362 3.97753 6.46927 -0.390179 0.592977 -0.704371 170 170 170
-3.42552 3.94601 6.44855 0.330214 0.567908 -0.753949 139 140 140
-3.41153 4.00502 6.49397 0.502558 0.0602131 -0.862444 179 180 179
-3.26203 3.8452 6.19715 -0.284183 -0.10168 -0.953363 105 105 105
-2.70822 3.91212 6.39181 0.31323 0.0451325 -0.948604 71 71 72
-3.075 3.8536 6.23765 -0.120412 0.597032 -0.793129 70 71 71
-3.04816 3.8257 6.17999 -0.184331 0.582961 -0.791314 63 64 64
-3.17561 3.92979 6.33059 0.0100053 0.621121 -0.783651 168 168 168
-2.83422 3.50176 5.5846 0.0912288 0.00575376 -0.995813 45 44 43
-3.05555 3.88461 6.25723 -0.0616892 0.630174 -0.774 117 117 117
-3.0243 3.84991 6.21574 -0.124867 0.609381 -0.782983 69 69 68
-3.02461 3.84892 6.22364 -0.198885 0.578578 -0.791007 55 56 56
-2.8125 3.73785 5.97093 0.397405 0.0203706 -0.917417 43 44 46
-2.97614 3.96361 6.44227 -0.0809109 0.623011 -0.778017 151 150 150
-3.40743 3.9435 6.45051 -0.223664 0.257992 -0.939901 120 120 120
-3.39722 3.95972 6.46904 -0.38046 0.222343 -0.897671 146 145 145
-2.55491 3.53204 5.90802 -0.548724 0.276178 -0.789067 37 37 37
-3.37046 3.89014 6.40128 -0.297132 0.191452 -0.935446 59 59 60
-3.45487 3.92172 6.43629 -0.0628292 0.0382015 -0.997293 81 81 80
-3.22021 3.93943 6.42227 -0.36783 0.461114 -0.807512 132 131 132
-2.59154 3.55444 6.04095 -0.358632 0.392033 -0.847168 38 39 39
-2.55578 3.987 6.36205 0.358019 0.295714 -0.88565 183 184 183
-2.5289 3.98251 6.35357 0.467685 -0.331389 -0.819422 182 183 182
-2.54098 3.98814 6.37911 0.489522 0.251608 -0.834902 183 184 182
-3.37203 3.77488 6.16532 0.743934 0.147066 -0.651869 38 39 42
-2.51857 3.9785 6.34948 0.24621 0.33472 -0.909584 182 183 181
-2.97248 3.79431 6.15337 -0.765031 0.113927 -0.633835 70 70 67
-3.22806 3.94879 6.43464 -0.19591 0.642527 -0.740796 135 135 134
-3.18199 3.95586 6.38641 0.426323 0.335718 -0.839966 167 167 166
-3.42253 3.99436 6.46796 -0.663573 0.4125 -0.624111 177 178 178
-2.61789 3.53788 6.0357 -0.63453 0.30805 -0.708857 31 32 32
-2.57434 3.61356 6.09389 -0.727205 0.15586 -0.668491 32 33 35
-2.90096 3.56598 5.74841 -0.101941 0.472924 -0.875186 47 46 44
-2.55632 3.693 6.14751 -0.737982 0.132269 -0.661731 30 31 30
-2.92268 3.60687 5.70907 -0.160999 0.429436 -0.888631 53 53 52
-2.58645 4.03412 6.43631 0.79406 0.194006 -0.576047 185 185 184
-2.57029 3.83835 6.21721 0.152689 0.496345 -0.854592 43 43 44
-2.52019 3.82021 6.24247 -0.22722 0.297492 -0.927292 36 37 37
-2.51999 3.63262 6.03765 -0.680905 0.0479345 -0.730801 50 52 51
-3.45552 3.89719 6.40776 0.425505 0.319576 -0.84665 56 57 58
-3.43782 3.97977 6.45272 -0.0901853 0.632428 -0.769351 173 173 173
-3.1898 3.90948 6.26794 -0.0981798 0.638837 -0.763052 164 164 163
-3.03961 3.90338 6.31223 -0.429655 0.534925 -0.727497 130 129 128
-2.93271 3.87655 6.26032 -0.300025 0.523028 -0.797764 98 98 97
-2.57835 3.89899 6.36277 0.3009 0.139461 -0.943404 53 53 51
-2.57838 3.89892 6.36256 0.3004 0.137871 -0.943796 53 53 51
-3.24374 4.00397 6.48755 -0.496723 0.45294 -0.740345 179 180 179
-3.17196 4.0628 6.49177 -0.728703 0.169408 -0.663546 182 183 182
-2.84445 3.93113 6.31411 -0.0462042 0.639532 -0.767375 176 176 176
-3.21103 4.01533 6.47688 -0.61416 0.339659 -0.712348 181 182 181
-3.18437 4.02077 6.45792 -0.62466 0.326109 -0.709544 181 183 182
-3.15721 4.00045 6.44831 0.479658 0.240536 -0.843843 179 180 179
-3.06841 3.82459 6.23195 -0.1164 0.609156 -0.784462 63 64 64
-3.33222 3.91486 6.4164 -0.148856 0.43406 -0.888501 87 86 86
-3.40625 3.92949 6.46656 -0.128138 0.0899471 -0.987669 74 74 76
-3.46297 3.91647 6.35625 0.0949859 0.620675 -0.778293 135 135 135
-3.36938 3.82611 6.28455 -0.00678228 0.378486 -0.925582 63 64 68
-2.59177 3.88675 6.34653 0.363677 0.296677 -0.883018 53 54 52
-3.4934 3.91604 6.44736 0.113285 0.330657 -0.936927 69 69 69
-2.5269 4.02658 6.413 0.299226 0.462848 -0.834407 174 174 173
-2.92915 3.9171 6.29789 -0.169634 0.644728 -0.745352 158 158 158
-2.59102 3.81599 6.19144 0.738143 0.0335956 -0.673807 47 48 49
-2.55586 3.73121 6.17313 -0.780629 0.128268 -0.61169 43 43 42
-2.59066 3.8155 6.18992 0.743773 0.0148014 -0.668269 47 48 49
-1.58593 3.99904 6.35286 -0.212466 0.0426775 -0.976236 179 179 178
-1.6125 4.00074 6.35792 -0.377113 0.0210668 -0.925928 177 177 175
-1.67662 4.0254 6.38306 0.49674 -0.107377 -0.861231 176 177 175
-1.67069 4.00254 6.35702 -0.575173 0.181323 -0.797683 176 177 175
-1.66784 3.9822 6.30267 0.0994384 0.0297382 -0.994599 177 178 176
-1.68691 4.02998 6.37101 0.103795 0.0320024 -0.994084 178 179 177
-1.60467 3.95405 6.28646 -0.0191598 -0.0154722 -0.999697 171 171 170
-1.61963 3.9303 6.25502 0.355984 -0.896553 -0.263566 161 160 160
-2.47636 3.63913 6.04001 -0.662825 0.098027 -0.74233 53 54 53
-1.72404 3.92747 6.28206 0.0720084 -0.0411954 -0.996553 142 142 141
-2.24124 3.87461 6.30882 0.299723 0.263982 -0.916777 52 51 48
-2.4698 3.72985 6.10078 -0.660011 0.102946 -0.744169 68 69 68
-1.78013 3.98737 6.3058 -0.327285 0.615712 -0.716787 176 177 176
-1.8125 4.00591 6.37207 -0.144153 -0.0630439 -0.987545 180 181 180
-1.94054 4.02169 6.41349 -0.761402 0.182101 -0.622179 174 175 173
-2.04031 4.03164 6.42892 -0.853822 0.0607898 -0.517003 174 175 173
-2.32603 4.06389 6.47476 -0.826344 0.099028 -0.55439 176 177 175
-1.66751 3.95396 6.32012 0.472137 -0.0232218 -0.881219 163 163 162
-2.30854 4.04933 6.45734 -0.839898 0.0593958 -0.539484 179 180 178
-1.9452 3.94776 6.31521 0.0164696 -0.0806102 -0.99661 167 167 166
-2.24728 3.89721 6.34663 0.647883 0.18769 -0.738255 38 38 38
-2.24654 3.88109 6.3219 0.406616 0.306291 -0.860726 21 21 21
-1.8378 4.03418 6.40635 -0.104043 -0.0132134 -0.994485 175 175 174
-1.65098 3.95175 6.29056 -0.100942 -0.0313205 -0.994399 169 169 169
-1.63331 3.85147 6.11239 0.199322 0.618881 -0.759774 90 90 89
-2.45456 3.95167 6.39337 -0.178696 0.532412 -0.827409 145 144 144
-2.44572 4.0041 6.36435 -0.0491158 0.579075 -0.813793 182 183 182
-2.47283 3.93323 6.17927 0.844139 0.101398 -0.526449 187 187 186
-2.08717 3.81311 6.17277 0.630829 0.199882 -0.749735 46 46 47
-2.17452 3.77923 6.06301 0.731883 -0.0483577 -0.679712 45 46 47
-2.17306 3.84704 6.30539 0.652097 0.176405 -0.737327 50 50 51
-2.19653 3.79945 6.0666 0.501898 -0.0431539 -0.863849 45 45 46
-1.78346 3.99704 6.34774 -0.754436 -0.0225463 -0.655986 179 180 179
-1.50448 4.02033 6.36335 -0.77603 0.186081 -0.602621 178 179 177
-2.47833 3.89988 6.33624 -0.116436 0.64556 -0.754781 38 38 37
-2.49115 3.71849 6.06716 -0.64664 0.0639166 -0.760113 52 52 51
-2.42846 3.65394 6.05948 -0.705113 -0.00292582 -0.709089 40 41 40
-2.11643 4.04153 6.45164 0.808334 0.0944444 -0.581099 178 177 174
-1.76624 4.02165 6.35335 -0.808527 0.0985765 -0.580144 173 174 172
-1.76427 4.03052 6.37336 -0.85565 -0.103497 -0.507101 174 175 173
-2.4421 3.54489 5.93545 -0.554136 0.245186 -0.795499 39 39 39
-2.49094 3.60464 6.0019 -0.671627 0.0174474 -0.740684 50 51 51
-2.47164 3.5904 5.99004 -0.495292 0.269231 -0.825955 41 42 42
-1.66283 3.9616 6.30178 0.0927089 -0.0755973 -0.992819 174 174 173
-2.4456 3.5974 5.99398 -0.628927 0.151869 -0.762487 42 43 42
-1.54302 3.92352 6.26198 0.124328 -0.0568621 -0.990611 140 138 138
-1.63132 3.95545 6.29241 -0.0623357 0.00934505 -0.998011 170 170 169
-1.69228 4.00109 6.36294 -0.0862852 -0.377415 -0.922015 176 176 174
-1.76681 3.99625 6.30953 0.103256 0.0319846 -0.99414 176 177 175
-1.6192 3.92696 6.27538 0.0324268 0.156583 -0.987132 151 150 149
-1.64587 3.92745 6.27855 0.0603674 0.0994457 -0.99321 144 143 141
-2.43865 3.57307 5.95964 -0.701345 0.288886 -0.651659 44 43 44
-1.64321 3.90246 6.18482 -0.317701 0.637899 -0.701535 156 156 155
-1.94485 3.90537 6.28047 0.00211085 -0.294446 -0.955666 107 107 105
-1.96381 3.90808 6.2765 0.0761635 -0.0151194 -0.996981 118 117 115
-2.00438 3.91501 6.30712 0.309455 -0.0813562 -0.947427 108 107 106
-2.05202 3.92919 6.3094 -0.165892 0.302507 -0.9386 144 144 143
-1.77347 4.00689 6.33814 0.10542 0.0348933 -0.993815 176 177 175
-2.18718 3.54355 6.49193 0.363731 0.0980843 -0.926326 33 34 34
-1.67564 3.8322 6.07219 0.21603 0.480613 -0.849907 92 91 90
-1.69814 3.92794 6.28139 0.161502 -0.13353 -0.977797 151 150 149
-1.80233 3.97285 6.31765 0.01358 -0.979676 -0.200125 177 177 176
-1.9801 3.89784 6.29 -0.014821 -0.232174 -0.972561 70 70 70
-1.79825 4.04066 6.41051 -0.102784 -0.0182919 -0.994536 174 175 174
-1.79018 4.03767 6.39623 -0.855311 -0.117333 -0.504655 175 176 174
-1.91274 3.84705 6.2327 0.60721 0.424646 -0.671544 60 61 61
-2.1889 3.55972 6.48885 0.0831924 0.070956 -0.994004 32 33 33
-1.83436 3.9929 6.34297 -0.748422 -0.0132401 -0.663091 176 177 175
-1.60983 3.74671 5.89517 0.185992 0.286114 -0.939971 63 63 61
-1.70936 3.95901 6.30669 -0.0756715 -0.102154 -0.991886 173 172 172
-1.76152 3.88965 6.22776 -0.336962 0.214038 -0.916867 109 108 106
-1.79948 3.92466 6.28801 0.123054 -0.00712562 -0.992375 137 136 135
-1.81396 3.94218 6.30322 0.0844248 -0.965287 -0.247173 161 160 160
-1.8472 3.96794 6.34112 0.0499642 0.0715061 -0.996188 171 171 171
-1.81761 3.96133 6.32217 -0.0995789 -0.0190655 -0.994847 170 170 169
-2.00158 3.90211 6.30143 0.509069 0.171538 -0.843459 77 76 76
-2.24333 3.83536 6.26413 0.669803 0.360503 -0.649154 51 52 52
-1.8363 3.60614 5.89033 0.47632 -0.0507712 -0.877805 75 75 75
-1.83467 3.57833 5.8836 0.476588 -0.052476 -0.877559 75 76 76
-1.82944 3.5675 5.86579 0.47909 -0.066476 -0.875245 74 74 75
-1.83657 3.60596 5.8899 0.475265 -0.0472088 -0.878575 75 75 75
-2.00967 3.90913 6.30238 -0.420621 0.00589742 -0.907217 104 103 102
-2.26713 3.50179 6.47893 -0.0411152 0.470644 -0.881365 26 27 26
-2.00477 3.89432 6.28046 -0.233203 0.111923 -0.965966 97 96 94
-1.83081 3.59558 5.87372 0.477166 -0.0580661 -0.876893 74 74 75
-1.61732 3.92194 6.16544 -0.351031 0.626675 -0.695741 174 175 174
-2.28159 3.52392 6.47619 0.037875 0.378259 -0.924925 44 44 42
-2.28071 3.99972 6.39446 0.612815 0.286773 -0.736355 183 183 182
-2.31192 4.00457 6.39087 0.468576 0.367702 -0.803263 181 180 179
-1.99727 3.99645 6.37652 0.102495 0.030051 -0.99428 177 178 176
-1.89564 3.91799 6.28365 0.572943 0.301345 -0.762186 132 132 131
-1.92145 3.90854 6.28839 -0.144152 -0.118604 -0.982422 122 121 119
-1.99754 3.96308 6.36865 0.302288 0.476102 -0.825802 168 168 167
-1.61799 3.72387 5.89244 0.228544 0.221697 -0.947955 61 61 60
-2.04301 3.96913 6.35223 -0.18813 0.199101 -0.961751 174 174 174
-2.07288 4.00553 6.42981 -0.219927 0.0740646 -0.972701 179 180 179
-2.11645 4.04165 6.45198 0.813724 0.0783497 -0.575947 181 181 178
-2.07158 3.92265 6.29374 -0.453853 0.401914 -0.795288 145 144 143
-1.99913 4.05365 6.45084 0.687627 0.071723 -0.722512 177 177 175
-1.7915 3.96075 6.31782 -0.09386 -0.051961 -0.994228 172 172 171
-2.1487 3.92561 6.39931 -0.097327 -0.000210106 -0.995252 73 72 72
-2.22141 3.90504 6.35552 0.12272 0.649665 -0.75025 49 49 51
-2.35712 3.95314 6.36285 0.293994 0.454941 -0.840593 159 158 158
-2.35506 3.95167 6.3584 0.311074 0.443722 -0.840442 159 158 158
-2.37812 3.95538 6.35791 0.0857279 0.621462 -0.77874 166 165 165
-1.83359 3.57874 5.88453 0.47974 -0.064731 -0.87502 75 76 76
-2.28 3.92588 6.30259 -0.0412971 0.588753 -0.807257 151 150 150
-2.27759 3.93166 6.2873 0.0885543 0.619553 -0.779943 162 161 161
-2.15706 3.5114 6.4851 -0.116744 0.0596556 -0.991369 42 43 42
-2.24559 3.95428 6.38441 -0.0412588 0.588858 -0.807183 142 141 141
-2.23592 3.95176 6.40005 -0.0198777 0.646294 -0.762829 125 124 124
-2.14869 3.92557 6.39918 -0.0975764 0.00151896 -0.995227 73 72 72
-1.73539 3.95825 6.3065 -0.0815569 -0.115743 -0.989925 172 173 172
-2.47493 3.9467 6.38813 -0.0353198 0.577611 -0.815547 139 139 140
-2.08317 3.97174 6.40635 -0.123134 0.044766 -0.99138 161 161 161
-2.44769 3.93718 6.39817 0.696117 0.0221137 -0.717588 101 100 101
-2.02481 3.9338 6.32159 -0.191897 0.222851 -0.955779 143 142 141
-1.9936 3.92758 6.30938 -0.18498 0.458209 -0.869383 143 141 141
-2.04655 4.00455 6.42371 -0.128561 0.0263425 -0.991352 173 172 171
-1.59109 3.72364 5.8984 0.332162 0.234524 -0.913601 52 52 51
-2.27086 3.94195 6.32685 0.115646 0.619788 -0.776202 163 161 162
-1.95015 4.01441 6.39342 0.673175 0.0977773 -0.73299 179 179 178
-2.18966 3.5099 6.47157 -0.542315 0.316333 -0.77835 33 34 33
-1.98167 4.0272 6.41168 -0.677264 -0.165479 -0.71689 181 181 179
-2.00847 4.02666 6.41564 -0.718459 -0.0627935 -0.692729 178 178 177
-1.95462 4.02551 6.40473 -0.744754 0.00453248 -0.667323 175 176 174
-2.47144 3.90172 6.34378 -0.113855 0.57787 -0.808148 53 53 53
-2.46541 3.87155 6.35282 0.443587 0.319751 -0.837251 39 39 41
-2.06657 4.04311 6.46696 -0.124092 -0.0393653 -0.99149 177 177 175
-1.91313 3.95601 6.3308 -0.142287 -0.0375173 -0.989114 168 168 167
-1.88155 3.94662 6.29898 0.0243456 -0.0105146 -0.999648 169 169 169
-1.59417 3.73884 5.87996 -0.155175 0.627724 -0.762813 61 61 59
-1.55636 3.73547 5.86686 0.104105 0.439659 -0.892111 66 66 63
-2.4285 3.654 6.05965 -0.705364 -0.00403998 -0.708834 43 45 44
-2.43884 3.65407 6.03711 -0.701976 0.00307187 -0.712194 50 52 51
-2.49594 3.65402 6.05371 -0.703853 -0.0146405 -0.710195 44 45 45
-2.45187 3.89585 6.359 0.198332 0.0952228 -0.975498 38 39 41
-1.93435 3.98888 6.36511 -0.0192315 -0.202786 -0.979034 175 175 174
-1.90935 3.99407 6.379 -0.193456 0.21961 -0.956214 175 175 174
-1.7755 3.92971 6.29019 0.0926884 0.0570666 -0.994058 146 145 145
-2.45909 3.63503 6.03895 -0.652256 0.122816 -0.747983 53 54 53
-1.74974 3.92896 6.28738 -0.00199121 0.225023 -0.974352 151 151 150
-1.74982 3.92757 6.2845 0.0003573 -0.0194524 -0.999811 151 150 149
-1.62558 3.82066 6.0803 0.716338 0.00113811 -0.697753 56 56 56
-1.99608 4.02813 6.44458 0.73736 0.201068 -0.644882 180 180 179
-2.35133 3.94011 6.33231 0.127651 0.279521 -0.951616 161 161 160
-2.12432 4.0354 6.39319 0.681835 0.160254 -0.713736 176 177 175
-1.90533 3.99116 6.36203 -0.134864 0.0656774 -0.988685 173 173 172
-1.96656 3.96722 6.36707 0.171747 0.0794789 -0.98193 165 164 164
-2.418 3.97587 6.40721 -0.150668 0.52375 -0.838442 173 174 173
-2.41104 4.00479 6.41801 0.502095 0.029783 -0.864299 176 176 176
-2.47898 3.98861 6.40928 0.558237 0.364038 -0.745552 184 184 183
-2.35711 3.95309 6.36269 0.295639 0.454268 -0.840379 162 161 161
-2.13624 3.84246 6.28868 0.0580178 0.592418 -0.803539 51 52 54
-1.51826 3.8104 6.07681 0.415091 0.267919 -0.869436 70 69 65
-1.76576 3.99703 6.3106 0.0827592 0.00557723 -0.996554 176 177 176
-1.88136 4.00132 6.39051 -0.204449 0.227999 -0.951955 174 173 172
-2.13384 3.85418 6.33312 -0.136738 0.0546237 -0.9891 57 58 58
-2.19991 3.83592 6.19738 -0.0369966 0.52376 -0.851062 60 60 57
-2.1352 3.89881 6.38884 -0.0500297 -0.10523 -0.993189 50 52 52
-1.82116 3.53044 5.84527 0.480218 -0.0752505 -0.873916 71 71 71
-2.46 3.86374 6.34775 0.635233 0.237945 -0.734752 56 57 58
-2.26338 3.92147 6.33902 0.473186 0.434807 -0.766184 97 96 97
-2.28065 3.90924 6.33777 0.334967 0.438906 -0.833762 53 52 53
-1.87081 3.99512 6.36994 -0.8075 0.0739377 -0.585215 173 173 172
-1.76109 3.95955 6.31097 -0.0197002 -0.07583 -0.996926 171 171 170
-1.90487 4.02034 6.36518 -0.105659 -0.0127335 -0.994321 175 176 174
-1.8915 4.01789 6.37476 -0.751557 -0.0367689 -0.658642 176 176 175
-2.10589 4.03697 6.45638 -0.190899 0.0592329 -0.979821 178 177 175
-2.36512 3.96457 6.36105 0.303538 0.348758 -0.886697 175 175 175
-2.38162 3.9849 6.37735 -0.619307 0.188336 -0.762226 181 182 181
-2.34461 3.92789 6.22891 0.353248 0.502421 -0.78917 179 179 179
-2.49892 3.94963 6.33581 8.50856e-05 0.189494 -0.981882 172 172 172
-1.92433 3.98127 6.39148 0.224399 0.145423 -0.963586 167 166 166
-2.48763 3.96056 6.35503 -0.00433405 -0.102929 -0.994679 176 175 175
-1.82482 3.5003 5.83104 0.483349 -0.111006 -0.868361 71 71 71
-2.44163 3.87879 6.37663 0.195006 0.0994737 -0.975745 45 48 50
-2.44023 3.73796 6.01848 -0.707177 0.201237 -0.677794 70 70 68
-1.83081 3.55157 5.87913 0.480893 -0.0711165 -0.87389 75 75 76
-1.5125 3.76038 5.99293 0.232925 0.212096 -0.949085 73 73 69
-1.82642 3.54078 5.86172 0.481812 -0.0792643 -0.872682 73 74 74
-1.83085 3.55166 5.87957 0.48151 -0.0730661 -0.87339 75 75 76
-1.83081 3.55157 5.87913 0.480893 -0.0711165 -0.87389 75 75 76
-2.47877 3.74438 6.17876 -0.641532 -0.0774138 -0.76318 51 50 49
-2.48191 3.83236 6.30243 0.550539 0.16273 -0.818796 43 43 45
-2.19827 3.52765 6.46231 -0.195166 -0.00192416 -0.980768 18 19 19
-1.83085 3.55166 5.87957 0.48151 -0.0730661 -0.87339 75 75 76
-2.49093 3.88383 6.32038 0.178237 0.535162 -0.825732 45 46 46
-2.49969 3.90169 6.32211 0.461966 0.382205 -0.800317 76 76 76
-2.43912 3.89715 6.35397 0.672685 0.212703 -0.708698 56 57 58
-1.82642 3.54078 5.86172 0.481812 -0.0792643 -0.872682 73 74 74
-1.83085 3.55166 5.87957 0.48151 -0.0730661 -0.87339 75 75 76
-1.68198 3.96388 6.3273 -0.0401444 -0.968068 -0.247454 170 170 169
-1.68365 3.95802 6.30168 -0.0252022 -0.0306872 -0.999211 174 174 173
-2.19063 3.56396 6.48246 0.38266 0.0500541 -0.922532 31 32 32
-1.71818 4.00196 6.36759 -0.256848 -0.27283 -0.927142 177 177 175
-1.65751 3.95722 6.29859 -0.0297928 -0.00184444 -0.999554 174 174 173
-2.01321 3.97162 6.35214 -0.195226 0.225664 -0.954444 176 176 176
-1.76239 3.89084 6.24565 -0.169572 0.306559 -0.936625 92 91 89
-1.79538 3.90524 6.29204 0.530831 0.314841 -0.786825 74 73 73
-1.84949 3.90808 6.26492 0.395519 -0.00318757 -0.918452 119 119 117
-1.9367 3.94552 6.30682 -0.0656742 0.0768195 -0.99488 167 167 166
-2.39589 3.50958 5.85556 -0.438706 0.463195 -0.770057 64 64 61
-1.9888 3.99347 6.38545 -0.0957357 -0.321181 -0.942166 180 180 179
-1.83386 3.57854 5.88393 0.480266 -0.068741 -0.874425 75 76 76
-1.82379 3.55749 5.85065 0.475148 -0.0539151 -0.878253 72 72 73
-2.02351 3.87296 6.27891 -0.0453342 0.0047048 -0.998961 65 65 65
-1.82642 3.54067 5.86124 0.482118 -0.0797533 -0.872469 73 74 74
-1.83467 3.57833 5.8836 0.476588 -0.052476 -0.877559 75 76 76
-1.82968 3.56764 5.86648 0.480323 -0.0715668 -0.874167 74 75 75
-2.4923 3.93885 6.36737 0.0733881 0.617397 -0.783221 138 138 138
-2.26568 3.86259 6.32082 0.557699 0.472659 -0.682324 50 51 52
-1.96628 3.86434 6.25965 0.0972147 -0.213672 -0.972056 66 66 64
-2.40183 3.97333 6.37644 0.376277 0.263226 -0.888328 178 179 178
-1.96685 4.00167 6.40491 -0.0749951 -0.132046 -0.988402 178 177 176
-1.98081 3.88623 6.29856 -0.190118 0.0527428 -0.980344 44 44 46
-2.28173 3.91734 6.3299 0.308366 0.530842 -0.789378 101 99 100
-2.27599 4.07217 6.4639 -0.94564 0.172259 -0.275847 182 184 183
-2.4246 3.98547 6.42481 -0.0083929 -0.00552097 -0.99995 172 172 172
-2.25861 4.06222 6.46119 -0.960155 0.12372 -0.250591 180 182 180
-1.83729 3.60543 5.88838 0.476515 -0.0518384 -0.877637 75 76 76
-1.80649 3.57752 5.88386 0.20337 0.628996 -0.750337 61 61 61
-2.32707 4.00164 6.37387 -0.70943 0.00859269 -0.704724 182 182 181
-2.33129 4.01973 6.42632 0.514917 0.334225 -0.789401 186 186 185
-1.83386 3.57854 5.88393 0.480266 -0.068741 -0.874425 75 76 76
-2.03797 3.84919 6.27857 0.108609 0.0385037 -0.993339 49 50 51
-1.99225 3.86752 6.26515 -0.00485939 0.158354 -0.987371 90 89 85
-2.42559 3.50033 5.84455 -0.463777 0.486249 -0.740589 65 65 64
-2.45916 3.76329 6.05299 -0.633352 0.129742 -0.762911 55 56 56
-2.32239 3.9346 6.26394 0.0409365 0.393552 -0.91839 179 180 179
-2.32192 3.94214 6.34012 0.244486 0.339621 -0.908231 160 160 159
-1.82968 3.56764 5.86648 0.480323 -0.0715668 -0.874167 74 75 75
-1.83467 3.57833 5.8836 0.476588 -0.052476 -0.877559 75 76 76
-2.10419 3.9157 6.3989 -0.233451 -0.306364 -0.922844 48 48 48
-2.00598 3.84148 6.25762 -0.736191 -0.00761861 -0.676731 63 64 66
-2.29763 3.94875 6.30126 0.081815 0.236344 -0.968219 178 178 177
-2.45269 4.05797 6.48741 0.66023 0.190982 -0.726376 181 181 179
-1.80182 3.56874 5.86117 0.126083 0.632122 -0.764542 60 60 59
-2.29961 3.41911 5.71149 -0.88158 0.167154 -0.441449 67 66 66
-2.33638 3.30768 5.64463 -0.755891 0.119833 -0.643638 19 20 19
-2.24813 3.39823 6.43358 0.201152 0.191379 -0.960683 27 29 27
-1.82065 3.45735 5.83854 -0.228726 -0.0575052 -0.971791 77 77 73
-2.38196 3.29603 5.63744 -0.441872 0.078976 -0.893595 29 29 27
-2.36641 3.33484 5.66593 -0.411223 0.229312 -0.88222 26 27 27
-2.36434 3.33628 5.66651 -0.431447 0.182567 -0.883472 22 23 23
-2.27429 3.39457 6.41892 0.13955 0.218774 -0.965745 20 22 21
-1.74049 3.14073 6.02645 -0.538155 -0.759573 -0.365292 47 48 46
-2.23202 3.3643 6.42019 0.418807 -0.0685398 -0.905485 34 35 35
-2.2664 3.37167 6.43047 -0.0642034 0.154376 -0.985924 23 24 23
-2.4479 3.3331 5.67192 -0.476905 0.370231 -0.797177 25 26 26
-2.32255 3.32838 5.65945 -0.6721 -0.00784253 -0.740419 26 27 26
-1.73502 3.16036 6.01151 -0.488595 -0.715462 -0.499388 58 58 55
-2.33352 3.33072 5.63841 -0.685067 0.060617 -0.725953 31 32 31
-2.4155 3.32858 5.64755 -0.308629 0.228885 -0.923233 44 44 43
-2.26171 3.42019 6.42972 0.113352 0.205188 -0.972136 22 23 22
-2.1351 3.41099 6.17049 -0.641842 -0.625739 -0.443271 49 51 49
-2.15301 3.4091 6.18254 -0.64094 -0.625775 -0.444524 42 43 42
-2.34752 3.31082 5.62601 -0.760195 0.106512 -0.640905 27 27 27
-2.20873 3.42143 6.40031 -0.756041 -0.166702 -0.632939 37 39 37
-2.40615 3.44328 5.79346 -0.224607 0.584907 -0.779382 31 33 32
-2.42156 3.43422 5.77254 -0.172717 0.529131 -0.830776 31 32 32
-2.43818 3.43282 5.77928 -0.448449 0.473597 -0.758024 41 42 42
-2.25563 3.36329 6.40584 0.0259294 0.196544 -0.980152 25 26 26
-2.38651 3.47452 5.81033 -0.37747 0.39357 -0.838224 37 38 37
-1.82276 3.49405 5.86459 -0.19662 0.162263 -0.96696 101 101 95
-1.82248 3.49414 5.86423 -0.211024 0.167827 -0.962966 101 100 94
-2.41713 3.47248 5.82159 -0.45143 0.472572 -0.756893 45 45 44
-2.48263 3.48938 5.85005 -0.694221 0.227087 -0.683 32 34 34
-1.76903 3.17873 5.90793 -0.942568 -0.331028 -0.044575 75 76 72
-1.77475 3.17029 5.96403 -0.744807 -0.641315 -0.184329 76 76 70
-1.69561 3.17016 6.02353 -0.915797 -0.398693 0.0485736 34 34 31
-1.70759 3.16717 6.01786 -0.901033 -0.433012 0.0252861 60 60 54
-1.72195 3.17809 5.90686 -0.898932 -0.431187 0.0774514 22 23 21
-1.721 3.18485 5.90201 -0.896271 -0.436307 0.0795943 21 21 20
-2.21125 3.45441 6.39606 -0.757907 -0.223011 -0.61306 26 27 27
-1.74783 3.18369 5.90206 -0.911651 -0.403739 0.0767267 55 56 53
-1.80199 3.19997 5.9315 -0.852439 -0.517658 0.0733272 110 110 102
-2.28087 3.43579 5.71235 -0.766317 0.096338 -0.635199 58 59 58
-2.16029 3.40394 6.25169 -0.653103 -0.605259 -0.455102 35 36 35
-1.79242 3.19159 5.96061 -0.743372 -0.643054 -0.184063 92 91 84
-1.76314 3.19864 5.90439 -0.912574 -0.401874 0.0755321 71 72 66
-1.74542 3.20184 5.89537 -0.862892 -0.499186 0.0789328 60 60 55
-2.42438 3.27653 5.5694 -0.345757 0.341234 -0.874078 58 59 56
-2.49399 3.41189 5.96601 0.647977 -0.712185 -0.270034 36 37 35
-2.1783 3.42086 6.23142 -0.655826 -0.599997 -0.458144 35 36 36
-1.72641 3.17843 5.90481 -0.895818 -0.437347 0.0789811 23 24 21
-1.77301 3.42551 5.83504 0.463555 -0.0502942 -0.88464 41 42 41
-1.8364 3.32533 5.89253 -0.697502 0.0866886 -0.71132 58 59 55
-2.37561 3.44599 5.78801 -0.320318 0.317686 -0.892453 38 39 38
-1.81922 3.34211 5.84366 -0.321599 0.158868 -0.933453 76 76 73
-2.45353 3.49201 5.85438 -0.486523 0.506834 -0.711628 59 59 56
-1.80148 3.1952 5.83044 -0.636576 -0.699232 -0.325338 72 71 66
-1.80173 3.1951 5.83013 -0.641429 -0.694019 -0.326966 72 71 66
-1.77928 3.20089 5.92253 -0.665243 -0.667308 -0.334891 39 39 38
-1.80374 3.3821 5.82296 -0.183542 0.190756 -0.964326 58 58 56
-1.83118 3.36163 5.83567 -0.194732 0.140581 -0.97073 56 57 56
-1.81909 3.15861 5.94994 -0.318911 -0.91082 -0.262113 61 61 56
-1.65927 3.18225 6.04421 -0.479134 -0.836106 -0.267128 64 64 58
-1.74201 3.17328 5.97253 -0.668455 -0.488641 -0.560713 70 70 65
-1.81289 3.43809 5.86019 -0.600153 0.118969 -0.790988 73 73 70
-1.76282 3.41805 5.82574 0.454053 -0.0823008 -0.887166 39 40 39
-2.32763 3.39953 5.74892 -0.738791 0.159442 -0.654803 18 20 20
-1.74533 3.17474 5.91412 -0.94107 -0.330745 0.0706688 57 58 54
-1.75134 3.21748 5.89086 -0.651181 -0.685323 -0.326029 55 55 53
-1.7693 3.22927 5.87061 -0.660143 -0.675011 -0.329503 64 64 61
-1.79994 3.42505 5.80222 -0.190176 -0.231341 -0.954104 52 52 50
-1.81081 3.4783 5.83025 -0.194554 0.009711 -0.980844 73 72 70
-1.817 3.34209 5.84056 -0.210253 0.126711 -0.969401 75 75 72
-1.76512 3.49369 5.81885 0.0792573 0.525506 -0.84709 42 42 42
-2.48916 3.49208 5.86042 -0.472407 0.497655 -0.727441 60 60 58
-1.80351 3.4809 5.82233 0.361653 -0.135742 -0.922378 60 60 61
-1.80342 3.4808 5.82147 0.360002 -0.135877 -0.923004 60 60 61
-1.78219 3.47245 5.82139 0.450958 0.0128651 -0.892452 49 49 48
-1.78734 3.12672 6.00329 -0.348121 -0.898035 -0.268972 55 55 51
-1.77926 3.15135 6.00362 -0.260027 -0.931143 -0.255652 57 57 54
-2.40904 3.44337 5.79404 -0.395827 0.41585 -0.818774 31 32 32
-1.8356 3.3555 5.92725 -0.571286 0.185039 -0.799621 68 68 65
-2.47533 3.44794 5.80166 -0.42015 0.441433 -0.792849 42 43 42
-2.28036 3.44614 6.43742 -0.172106 0.217295 -0.960813 22 23 23
-1.7735 3.42341 5.83612 0.468517 -0.0492419 -0.882081 41 42 41
-2.28768 3.35576 5.63726 -0.784063 0.042437 -0.619228 38 39 36
-2.30542 3.35743 5.62012 -0.783117 0.0419689 -0.620457 69 70 67
-2.31885 3.34876 5.64484 -0.790839 0.0115275 -0.611916 25 27 26
-2.36192 3.41476 5.75962 -0.385364 0.403447 -0.829895 24 25 24
-2.40034 3.42047 5.78754 -0.357223 0.370484 -0.857399 24 25 24
-2.43015 3.40712 5.76774 -0.660529 0.284933 -0.694633 24 24 25
-2.46527 3.42721 5.78276 -0.415132 0.43932 -0.796658 39 40 41
-2.47092 3.42915 5.78746 -0.461785 0.473783 -0.749856 33 34 35
-2.46199 3.39721 5.75617 -0.621588 0.335945 -0.70765 21 21 22
-2.49466 3.39127 5.75844 -0.654085 0.290873 -0.698259 23 24 24
-1.69677 3.17068 6.02437 -0.517527 -0.792197 -0.323404 72 72 67
-2.2409 3.42248 6.43599 -0.0881533 0.234648 -0.968075 28 29 28
-2.3784 3.29942 5.64118 -0.441822 0.0817452 -0.89337 34 35 33
-2.31038 3.34891 5.66605 -0.784284 0.0388357 -0.619185 32 32 32
-2.34654 3.37066 5.68607 -0.568897 0.40204 -0.71744 38 38 38
-1.82926 3.38273 5.92201 -0.603554 0.266369 -0.751512 65 65 61
-1.77895 3.3307 5.8673 -0.448313 0.064711 -0.891532 70 71 66
-2.30064 3.417 5.70559 -0.775336 0.173667 -0.607202 62 62 62
-1.76216 3.21001 5.90326 -0.862369 -0.500273 0.0777547 82 82 76
-1.68615 3.18168 6.03383 -0.439434 -0.858109 -0.265606 77 78 74
-1.6679 3.18001 6.04144 -0.483969 -0.833024 -0.268039 68 68 62
-2.44002 3.43889 5.78137 -0.59541 0.411699 -0.689921 53 53 53
-2.49129 3.45416 5.82461 -0.481669 0.507209 -0.714656 43 44 43
-1.7658 3.35933 5.88262 -0.484685 0.0295687 -0.874189 65 66 62
-2.15898 3.35226 6.24889 -0.610164 -0.66715 -0.42733 50 51 50
-2.21169 3.49891 6.45081 -0.335574 0.152882 -0.929525 16 16 16
-2.2703 3.475 6.45594 0.0635731 0.0755211 -0.995116 24 25 24
-1.74699 3.19068 5.89858 -0.890743 -0.447654 0.0786356 55 56 53
-2.29399 3.49068 6.44623 0.0318697 0.384737 -0.922476 28 29 28
-2.15252 3.37318 6.23982 -0.668525 -0.577382 -0.468726 48 50 48
-1.83483 3.18656 5.84618 -0.304006 -0.945417 -0.117334 81 82 75
-1.80611 3.4512 5.81505 -0.185271 -0.0188599 -0.982506 59 59 57
-2.50094 3.44751 5.80779 -0.478057 0.503016 -0.720026 51 51 50
-3.39298 2.82813 5.71414 -0.0508009 -0.299156 -0.952851 24 25 24
-3.46914 2.78419 5.72764 -0.116649 -0.0770101 -0.990183 88 89 83
-3.49224 2.76748 5.74006 -0.0155458 -0.39927 -0.916702 93 93 86
-3.36102 2.84611 5.69632 -0.887187 -0.263312 -0.378902 13 14 14
-3.41382 2.70581 5.56514 -0.797707 -0.235564 -0.555133 8 9 8
-2.73043 3.44141 5.77947 -0.628216 0.179778 -0.756984 68 68 68
-2.83443 3.42508 5.55812 -0.705371 -0.201907 -0.679474 47 47 47
-3.45068 2.88162 5.70522 -0.610514 0.216151 -0.761939 92 92 88
-3.40921 2.6969 5.52682 -0.776368 -0.229159 -0.587145 12 12 12
-2.51729 3.09426 5.63644 -0.226644 -0.93964 -0.25634 67 67 62
-2.58911 3.40969 5.8431 -0.691791 0.224772 -0.686224 34 35 34
-2.58087 3.39942 5.8493 -0.695517 0.21976 -0.684077 23 25 24
-3.42113 2.688 5.57391 -0.795511 -0.246723 -0.553434 11 11 11
-3.4071 2.6862 5.59177 -0.60004 -0.141558 -0.787346 11 11 11
-3.44015 2.70776 5.70816 -0.804476 -0.126228 -0.580418 38 40 37
-2.88337 3.47109 5.58129 -0.474056 0.00660548 -0.88047 32 31 29
-2.51745 3.09475 5.54231 -0.642392 -0.677641 -0.35796 56 57 53
-3.46359 2.74307 5.72133 -0.120765 -0.109021 -0.986676 69 70 66
-3.45483 2.73562 5.69607 -0.781404 -0.123497 -0.611683 50 51 47
-3.48605 2.74438 5.74382 -0.068903 -0.417447 -0.906085 108 108 102
-3.46781 2.74231 5.75632 -0.931047 -0.316193 -0.182136 104 104 98
-3.48331 2.76158 5.72988 -0.124546 -0.346999 -0.929559 93 93 88
-3.47357 2.71895 5.76373 -0.930857 -0.316218 -0.18306 105 105 100
-3.42753 2.71054 5.56915 -0.788989 -0.28368 -0.544997 10 10 10
-3.42486 2.66579 5.66875 -0.968842 -0.105839 -0.223928 15 16 15
-2.56401 3.13389 5.6114 -0.645033 -0.675826 -0.356639 95 95 89
-2.53914 3.11099 5.52954 -0.625786 -0.698184 -0.347752 55 55 52
-3.47404 2.89033 5.69958 -0.447419 0.113566 -0.887085 102 103 99
-3.49169 2.72592 5.76571 -0.931404 -0.292994 -0.215964 111 111 105
-2.84163 3.48035 5.58601 0.108306 0.0379668 -0.993392 32 32 30
-3.42297 2.68165 5.72722 -0.804839 -0.134682 -0.578009 28 29 27
-2.56146 3.11566 5.64099 -0.693902 -0.6121 -0.379255 85 85 80
-2.54384 3.11699 5.63836 -0.471463 -0.825324 -0.310745 73 74 69
-2.79749 3.41874 5.61482 -0.485214 -0.820232 -0.302966 67 67 64
-2.80753 3.43334 5.64965 -0.529635 -0.711511 -0.461779 76 77 73
-3.36673 2.82904 5.71603 -0.362283 -0.354074 -0.862197 15 16 16
-3.41863 2.64433 5.74491 -0.935544 -0.298783 -0.188377 17 17 16
-3.44985 2.63029 5.75761 -0.905212 -0.386326 -0.177043 40 40 39
-3.46802 2.8475 5.70737 -0.00578225 -0.102049 -0.994763 95 97 95
-3.46326 2.63553 5.75106 -0.907425 -0.380312 -0.178728 42 41 40
-3.44863 2.60611 5.7568 -0.906685 -0.382346 -0.178141 38 39 37
-3.44775 2.8245 5.70859 -0.0933376 -0.32862 -0.939839 70 72 70
-2.59708 3.38321 5.8403 -0.603581 0.351038 -0.715864 30 32 30
-3.42964 2.76321 5.72691 -0.151986 0.0521207 -0.987007 60 62 58
-3.47115 2.84856 5.70448 -0.260226 -0.16043 -0.952127 91 92 89
-3.44278 2.84202 5.69695 0.0379114 -0.420552 -0.906476 53 55 53
-3.42178 2.82551 5.70906 -0.0318536 -0.329575 -0.943592 49 50 48
-3.40431 2.80757 5.72248 -0.0707841 -0.190775 -0.979078 29 29 27
-3.46044 2.86957 5.69879 -0.293382 -0.0102942 -0.95594 86 86 84
-3.39562 2.85508 5.71305 -0.18706 -0.326889 -0.926365 21 22 21
-3.44526 2.85112 5.71077 -0.131673 -0.423483 -0.896284 77 78 75
-2.60952 3.34797 5.81429 -0.425494 0.455218 -0.782133 61 60 56
-3.47384 2.8239 5.71029 -0.0229913 -0.509996 -0.85987 91 91 88
-3.43371 2.66938 5.75976 -0.687348 -0.36096 -0.630286 43 43 41
-3.42381 2.65209 5.71016 -0.962445 -0.174133 -0.208275 21 21 20
-3.41735 2.78502 5.72343 -0.137827 -0.0919316 -0.986181 35 37 34
-3.48003 2.69503 5.76889 -0.930956 -0.315101 -0.184476 100 99 94
-3.43265 2.80512 5.71771 -0.123778 -0.137966 -0.982672 55 56 53
-3.41514 2.66443 5.60093 -0.595802 -0.271191 -0.75596 25 25 25
-3.43912 2.71238 5.64107 -0.612054 0.0907217 -0.785595 24 25 23
-3.45107 2.88993 5.69095 -0.351535 0.0751325 -0.933155 63 64 62
-2.51728 3.10482 5.59739 -0.105874 -0.956118 -0.273183 57 58 56
-2.55923 3.12358 5.57881 -0.709997 -0.544372 -0.446724 75 76 74
-2.51571 3.09722 5.57457 -0.2352 -0.937593 -0.256126 64 65 59
-2.54412 3.10655 5.67517 -0.592193 -0.731416 -0.338138 110 111 104
-3.45284 2.71243 5.70526 -0.803039 -0.0976792 -0.587866 49 50 47
-2.59179 3.3694 5.8508 -0.448048 0.487166 -0.749615 20 21 20
-3.44863 2.69188 5.72377 -0.799222 -0.208219 -0.563817 44 45 43
-3.42667 2.66463 5.58787 -0.645775 -0.0513383 -0.7618 14 14 14
-3.44455 2.67154 5.74373 -0.79119 -0.268064 -0.549691 36 36 35
-3.42398 2.64314 5.60438 -0.753742 -0.0973691 -0.649917 13 13 13
-3.43783 2.64925 5.75264 -0.734202 -0.252226 -0.630341 26 26 24
-3.45095 2.65568 5.74906 -0.791784 -0.260165 -0.552622 28 28 27
-3.46798 2.66253 5.76206 -0.895537 -0.409396 -0.174377 60 60 57
-3.45407 2.71322 5.7664 -0.889754 -0.425859 -0.164263 97 97 93
-3.43596 2.68728 5.72727 -0.801408 -0.194055 -0.565763 36 36 35
-2.55265 3.37178 5.74646 -0.181602 0.56156 -0.807261 62 62 58
-2.82965 3.46042 5.58336 -0.669125 0.460236 -0.583485 24 25 25
-2.57699 3.39883 5.85829 -0.516195 0.401521 -0.756521 34 35 34
-2.59014 3.44348 5.88774 -0.455314 0.489537 -0.743668 61 62 59
-2.54989 3.42252 5.82508 -0.157961 0.543453 -0.824444 61 61 58
-2.55496 3.42714 5.81812 -0.141409 0.529201 -0.83663 63 63 59
-2.60327 3.48745 5.95344 -0.469303 0.476731 -0.743292 51 52 50
-2.53161 3.45367 5.8453 -0.653871 0.107782 -0.74889 27 29 30
-3.60709 4.84278 6.74688 -0.795304 -0.2179 -0.565696 194 195 193
-3.55401 4.82079 6.70851 -0.80166 -0.244633 -0.545431 193 194 192
-3.55669 4.83824 6.73417 -0.800094 -0.275836 -0.532696 194 194 193
-3.57201 4.82991 6.72544 -0.801174 -0.208125 -0.561074 194 194 193
-3.59326 4.84884 6.76732 -0.792491 -0.213845 -0.571164 194 195 193
-3.593 4.85024 6.76969 -0.780529 -0.223278 -0.583884 194 195 193
-3.60747 4.84483 6.75163 -0.799826 -0.21085 -0.561979 194 195 193
-3.60752 4.845 6.75205 -0.799741 -0.209914 -0.56245 194 195 193
-3.54554 4.61486 6.76215 -0.808054 -0.195281 -0.5558 191 191 190
-3.5533 4.76186 6.7893 -0.61663 -0.256755 -0.744207 196 197 195
-3.60166 4.82166 6.76952 -0.800173 -0.232404 -0.552911 195 195 193
-3.57364 4.80347 6.72286 -0.797485 -0.296014 -0.52573 193 194 191
-3.61617 4.81721 6.82948 -0.804575 -0.232225 -0.546563 194 194 192
-3.59975 4.87292 6.75204 -0.800289 -0.222106 -0.556961 195 196 194
-3.68725 4.86731 7.405 -0.339307 -0.910959 -0.234574 198 199 197
-3.55355 4.64911 6.77368 -0.801921 -0.199434 -0.563159 191 192 191
-3.59149 4.75664 7.00568 -0.8063 -0.192698 -0.559239 193 194 192
-3.59097 4.75788 7.00681 -0.807165 -0.192375 -0.558101 193 194 192
-3.56613 4.63956 6.7381 -0.806991 -0.203044 -0.554562 192 192 191
-3.66165 4.83391 7.25053 -0.79965 -0.23394 -0.553021 198 199 197
-3.6853 4.85788 7.30737 -0.802168 -0.247827 -0.543238 196 197 195
-3.71084 4.88719 7.37885 -0.801141 -0.271574 -0.533311 197 197 195
-3.59679 4.8045 6.80222 -0.80046 -0.230506 -0.553291 196 197 195
-3.50423 4.65462 6.8571 -0.81078 -0.222574 -0.541384 190 191 190
-3.57194 4.66255 6.71977 -0.800963 -0.212233 -0.559835 195 196 194
-3.57916 4.84224 7.46045 -0.807458 -0.273222 -0.52284 193 194 192
-3.57813 4.87789 6.62873 -0.804303 -0.176294 -0.567466 194 195 193
-3.5327 4.85349 6.72374 -0.802799 -0.237848 -0.546756 193 193 192
-3.54607 4.84563 6.69983 -0.802129 -0.230693 -0.55079 193 194 192
-3.58581 4.87843 6.77053 -0.800518 -0.251106 -0.544165 195 196 193
-3.58848 4.87824 6.76755 -0.80055 -0.247403 -0.545813 195 196 193
-3.62586 4.83022 7.25515 -0.806429 -0.236723 -0.541881 195 195 194
-3.62312 4.82081 7.3914 -0.78504 -0.373451 -0.494213 194 195 193
-3.61137 4.78321 7.29189 -0.807858 -0.211768 -0.550018 193 194 192
-3.55307 4.58304 6.74943 -0.805138 -0.269667 -0.528235 190 191 190
-3.58153 4.88147 6.7047 -0.15861 -0.972888 -0.168322 190 190 188
-3.58374 4.75062 6.75011 -0.567813 -0.383059 -0.728597 197 197 195
-3.56569 4.75611 6.76162 -0.658083 -0.2954 -0.69258 196 197 195
