ply
format ascii 1.0
element vertex 742
property float x
property float y
property float z
property float nx
property float ny
property float nz
property uchar diffuse_red
property uchar diffuse_green
property uchar diffuse_blue
end_header
-3.87321 2.36231 0.871125 0.961345 -0.00431281 0.275313 180 131 103
-3.88019 2.37079 0.881691 0.88828 -0.175516 0.424444 177 130 100
-3.91691 2.42099 1.11118 0.469348 -0.331738 -0.818329 155 35 32
-3.87603 2.41278 1.2145 0.593492 -0.801045 -0.0780649 206 128 128
-3.86281 2.41891 1.27494 0.518889 -0.842255 0.146154 199 203 209
-3.82328 2.40664 1.26865 0.790718 0.18298 -0.584195 190 193 197
-4.144 2.38242 1.1462 -0.478114 -0.360459 0.800922 191 102 28
-4.12269 2.39133 1.16209 -0.214478 -0.275447 0.937085 193 110 28
-4.11908 2.24286 0.754823 0.0321037 -0.226347 -0.973517 143 33 29
-3.95668 2.43986 1.17461 -0.62355 -0.666384 0.4088 166 153 116
-3.9431 2.43868 1.18105 -0.216742 -0.324178 0.920832 166 155 117
-3.92603 2.44876 1.2014 -0.692207 -0.493544 0.526559 180 138 112
-3.91646 2.44928 1.21266 -0.783805 -0.567375 0.252457 163 49 47
-3.91413 2.44769 1.21107 -0.744757 -0.562918 0.358415 164 52 49
-3.92033 2.45505 1.22516 -0.798479 -0.587884 0.129707 166 41 40
-4.2592 2.48782 0.727804 0.971191 0.225093 0.0782341 191 190 196
-4.18424 2.46512 0.737468 0.0563379 -0.591006 -0.804697 55 37 51
-4.17476 2.47487 0.734637 0.211255 -0.434044 -0.875772 38 33 64
-4.18819 2.47878 0.736999 0.0544054 -0.25087 -0.966491 42 36 72
-4.17304 2.46566 0.745425 0.438356 -0.479438 -0.760252 56 33 34
-4.15881 2.46551 0.746792 0.6035 -0.52677 -0.598583 67 38 27
-4.14333 2.46114 0.757504 0.721252 -0.183897 -0.667816 124 64 25
-4.12349 2.45978 0.775251 0.61202 0.317521 -0.724301 140 69 24
-4.08425 2.49367 1.22758 -0.0626891 -0.514954 0.854923 126 30 30
-3.88186 2.39083 0.805687 0.759078 0.17472 -0.627116 185 160 137
-3.88284 2.38198 0.788762 0.796786 -0.106748 -0.594758 184 158 135
-4.32503 2.32711 1.06776 0.192917 -0.662968 0.723364 190 87 17
-4.32503 2.32711 1.06776 0.192917 -0.662968 0.723364 190 87 17
-4.32503 2.32711 1.06776 0.192917 -0.662968 0.723364 190 87 17
-3.80308 2.48872 1.32614 -0.52086 -0.823669 0.22422 192 193 191
-4.48864 2.27533 0.948821 -0.334801 -0.9171 -0.216416 176 48 43
-4.46837 2.26444 1.16518 -0.632465 -0.683011 -0.365355 164 84 32
-4.18837 2.36353 1.09634 -0.129434 -0.729564 0.671553 165 66 20
-4.17904 2.37342 1.10448 -0.889464 -0.408539 0.204817 172 76 24
-4.28115 2.48792 0.711075 0.792194 0.231415 -0.564691 202 208 218
-3.94468 2.36923 0.736244 0.874828 0.169498 -0.453814 183 153 129
-4.18289 2.45352 0.741964 0.440436 -0.454772 -0.77408 115 57 21
-4.16939 2.44502 0.748867 0.343317 0.0108867 -0.939157 158 86 25
-4.16388 2.45138 0.741155 0.121362 0.0329102 -0.992063 127 65 24
-4.15551 2.44587 0.752889 0.559674 -0.00804362 -0.828674 163 89 26
-4.14106 2.44672 0.760524 0.650113 0.160458 -0.742702 171 96 28
-4.13723 2.43664 0.769016 0.32931 0.215567 -0.919286 183 105 29
-3.95488 2.36832 0.712081 0.708094 0.15409 -0.6891 178 134 105
-3.94884 2.37585 0.724171 0.819883 -0.0483476 -0.570486 177 136 110
-4.19622 2.46038 0.742406 0.169158 -0.646999 -0.74349 103 52 24
-4.01564 2.22814 0.830215 0.153247 -0.350952 -0.923768 149 133 68
-4.46433 2.25196 0.884135 -0.643414 -0.61136 0.460714 177 48 45
-3.93581 2.37863 0.740055 0.614764 0.194641 -0.764317 182 150 127
-3.93898 2.39198 0.74318 0.819469 0.00127771 -0.573121 173 121 94
-3.9318 2.38467 0.75392 0.814716 -0.000139952 -0.579861 181 151 128
-3.92284 2.37795 0.768462 0.81854 0.14828 -0.554983 182 154 131
-4.02763 2.2263 0.825181 0.202962 -0.232017 -0.951302 125 97 63
-4.48772 2.19686 1.07215 0.18083 -0.707723 0.682956 207 212 220
-4.11144 2.06525 0.933994 0.191945 -0.933686 0.302305 163 117 124
-4.12678 2.05882 0.927118 0.304546 -0.867187 0.394004 153 42 42
-3.9034 2.42827 1.19932 -0.728884 -0.566617 0.384282 170 64 57
-4.11787 2.05835 0.857934 0.604454 -0.69119 -0.396096 152 58 56
-4.11479 2.06695 0.844436 0.442066 -0.626224 -0.6422 146 52 50
-4.12588 2.06823 0.835434 0.529638 -0.561491 -0.635777 160 128 127
-4.0552 2.04562 0.621167 0.945094 0.0640862 0.320452 204 204 206
-4.04205 2.22726 0.821722 0.231292 -0.232515 -0.944691 121 106 106
-4.04615 2.23773 0.815156 0.291058 -0.12834 -0.948058 133 121 123
-4.05099 2.22459 0.813332 0.69174 -0.238633 -0.681579 147 144 145
-4.04785 2.22877 0.794533 0.956193 0.275029 -0.10027 148 140 139
-4.06276 2.22064 0.759861 0.678939 -0.190291 -0.709106 139 92 83
-4.06995 2.23277 0.75479 0.551454 -0.442724 -0.707032 129 22 18
-4.0832 2.23332 0.747291 0.616273 -0.323052 -0.718224 144 27 23
-4.11816 2.05804 0.897069 0.560855 -0.718837 0.41075 143 45 41
-3.88507 2.4297 1.20683 -0.395891 -0.83294 0.386629 186 55 53
-4.07136 2.48618 1.22515 -0.273791 -0.563819 0.779196 136 32 32
-4.08475 2.48312 1.21788 -0.329716 -0.652575 0.682227 134 32 31
-4.09339 2.48088 1.20988 -0.356644 -0.64616 0.674746 130 31 28
-4.09421 2.49375 1.20763 -0.0409614 -0.509942 0.859233 124 30 28
-4.10647 2.49026 1.18888 -0.547461 -0.413336 0.727627 120 28 25
-4.01736 2.2702 1.17818 0.728671 0.248788 -0.638078 192 197 204
-4.02422 2.26737 1.17027 0.359316 0.0368201 -0.932489 190 193 199
-4.01347 2.27385 1.15554 -0.0962059 -0.0680478 -0.993033 186 188 190
-4.03196 2.27545 1.15575 0.173605 -0.1157 -0.977995 197 183 171
-3.95629 2.39282 0.725903 0.744511 0.274367 -0.608626 131 53 32
-4.09429 2.07378 0.895342 0.450289 -0.890181 0.0694062 166 121 124
-4.04668 2.27343 1.15012 0.737995 -0.250834 -0.626455 198 126 56
-4.10297 2.06846 0.865682 0.59384 -0.777539 -0.206849 157 41 38
-4.00309 2.22727 0.83707 0.588465 -0.489624 -0.64341 160 151 84
-4.09143 2.06982 0.875122 0.658517 -0.709973 -0.24959 151 53 52
-4.10079 2.06949 0.852956 0.451928 -0.837716 -0.306581 151 37 34
-4.14143 2.09752 0.729427 0.932673 0.171354 0.317427 206 209 215
-4.04272 2.27756 1.13286 0.983816 -0.0914081 0.154111 197 100 24
-3.96144 2.22185 0.934426 0.0894659 -0.954371 -0.284908 164 50 45
-3.97489 2.23512 0.959788 0.831219 -0.417302 -0.367333 160 42 39
-3.96104 2.2107 0.920455 0.335693 -0.941534 0.0287173 158 45 41
-3.94582 2.21051 0.896576 0.567707 -0.768488 -0.295187 158 48 45
-3.95233 2.20691 0.889575 0.937647 -0.331781 -0.103627 156 49 45
-3.98114 2.21829 0.832716 0.445521 -0.494035 -0.746619 164 157 95
-4.08827 2.07532 0.864087 0.404346 -0.903886 -0.139624 151 68 69
-4.20517 1.66549 0.71053 -0.129169 -0.10964 -0.985543 117 89 69
-4.18752 1.65537 0.72248 -0.123458 -0.481261 -0.86784 117 86 64
-4.19623 1.66016 0.717883 -0.120084 -0.341474 -0.932189 118 88 67
-3.85853 2.43443 1.2553 0.396472 -0.91372 0.0890239 210 152 152
-3.8307 2.42919 1.25715 0.819819 -0.206585 -0.534059 202 171 174
-4.17789 1.66115 0.721713 -0.142411 -0.621542 -0.770328 108 77 54
-4.16582 1.65486 0.727526 -0.175494 -0.714952 -0.676791 115 82 58
-3.88991 2.26498 0.872779 0.517021 -0.854909 0.0426608 184 56 53
-4.22265 1.67715 0.699681 -0.145801 0.132952 -0.98034 113 88 71
-4.1979 1.6728 0.714222 -0.219367 -0.529788 -0.81927 109 78 57
-3.99546 2.18191 0.94524 0.884818 -0.239338 0.399767 157 47 44
-3.82824 2.42066 1.26817 0.819061 -0.186545 -0.542531 186 187 189
-3.81248 2.42896 1.29072 0.817437 -0.184721 -0.545597 186 188 190
-4.20965 1.6794 0.710487 -0.240902 -0.454396 -0.857607 110 81 62
-3.91922 2.45442 1.22377 -0.793974 -0.577673 0.18947 168 44 43
-4.1868 1.67868 0.709252 -0.207706 -0.633908 -0.744996 98 67 46
-4.18641 1.66755 0.717628 -0.136846 -0.564758 -0.813832 107 75 53
-4.16543 1.66448 0.718398 -0.138367 -0.640244 -0.755608 111 79 56
-4.05572 2.1823 0.81404 0.803093 -0.0930671 -0.58854 148 146 146
-4.05802 2.19166 0.799004 0.73042 -0.0559658 -0.680702 170 169 170
-4.07351 2.19152 0.793764 0.512196 -0.398819 -0.760657 169 170 170
-3.84029 2.43271 1.26767 0.842911 -0.0989233 -0.528881 197 185 187
-4.18814 1.7535 1.15072 0.16059 -0.206781 0.965118 163 36 31
-4.07505 2.03491 0.669503 0.726151 -0.000569314 0.687535 201 196 189
-3.98702 2.18609 0.918662 0.743937 -0.609607 -0.273746 154 43 40
-3.9951 2.18823 0.921993 0.827083 -0.393324 0.401536 155 43 41
-3.98159 2.17416 0.889943 0.341937 -0.867459 -0.361378 164 60 55
-3.99964 2.17738 0.885301 0.25501 -0.860464 -0.441103 144 43 37
-4.00559 2.18322 0.852435 0.241413 -0.80836 -0.536912 165 141 95
-4.02504 2.179 0.847295 0.533048 -0.0758046 -0.842682 123 48 37
-4.04158 2.17802 0.834952 0.343433 -0.0962622 -0.934231 101 53 53
-4.05295 2.19252 0.830106 0.338642 -0.152204 -0.928523 145 139 141
-4.16234 1.63114 0.739379 -0.128146 -0.717843 -0.68431 128 94 68
-3.90163 2.26539 0.862359 0.635902 -0.726601 0.260154 180 57 55
-4.17674 1.64994 0.730105 -0.133339 -0.632801 -0.762747 121 89 65
-4.18556 1.64355 0.728892 -0.122346 -0.442946 -0.888161 125 94 71
-4.15407 1.6499 0.730736 -0.142988 -0.710669 -0.688843 120 87 62
-4.16548 1.64422 0.73776 -0.137084 -0.746802 -0.650765 125 92 67
-3.89227 2.26564 0.8733 0.557119 -0.827279 -0.0723118 185 56 53
-3.89905 2.26384 0.860345 0.687787 -0.716477 -0.11666 176 56 53
-3.936 2.27368 0.944125 0.478623 -0.852263 -0.211111 185 46 42
-3.91351 2.26983 0.965927 0.666506 -0.687441 0.288436 173 41 38
-3.95281 2.27774 0.959377 0.394148 -0.913555 0.10032 174 45 42
-3.93816 2.27641 1.00351 0.498423 -0.602272 0.623573 162 48 48
-3.9396 2.26797 0.993785 0.566808 -0.455037 0.686783 158 41 40
-4.0145 2.14412 0.566051 0.956775 -0.280619 -0.0763862 208 178 140
-4.21722 1.71137 0.694493 -0.172221 -0.482009 -0.859074 81 54 37
-4.20597 1.71591 0.689336 -0.159475 -0.530584 -0.832496 95 66 50
-4.17315 1.71297 0.686266 -0.187884 -0.571517 -0.798791 109 78 57
-4.19427 1.70931 0.691651 -0.096334 -0.497918 -0.861857 108 78 59
-3.91968 2.45595 1.22481 -0.782495 -0.58258 0.219778 166 41 40
-4.18097 1.70863 0.688134 -0.182772 -0.526108 -0.830545 111 80 59
-4.15684 1.70065 0.684689 0.26292 -0.565582 -0.781658 109 77 55
-4.13393 1.70137 0.699122 -0.0710743 -0.689331 -0.720951 98 67 45
-3.95548 2.27419 1.02435 0.508739 -0.772966 0.379088 125 77 85
-3.95323 2.27465 1.02295 0.511747 -0.769233 0.382617 128 67 73
-4.07634 2.33059 1.05236 0.504969 -0.483994 0.714672 110 21 6
-4.10673 2.33835 1.05903 0.6351 -0.474609 0.609422 147 44 14
-4.10764 2.34716 1.06784 0.375095 -0.577166 0.725385 163 54 15
-4.23666 1.72806 0.689962 -0.277058 -0.426861 -0.86083 87 64 48
-4.24444 1.7382 0.686708 -0.286812 -0.345067 -0.893682 91 68 53
-3.8804 2.27298 0.895286 0.570651 -0.820067 -0.0429755 191 56 52
-4.18298 1.71331 0.684755 -0.251463 -0.501308 -0.827923 110 80 59
-4.07836 2.18509 0.78875 0.564823 -0.609122 -0.556728 171 171 171
-4.08455 2.18376 0.775907 0.532052 -0.48435 -0.694497 173 165 164
-4.22993 1.68784 0.699561 -0.128686 -0.0486243 -0.990493 110 86 69
-4.21134 1.69543 0.702712 -0.242936 -0.510072 -0.825112 91 63 44
-4.22025 1.68947 0.703252 -0.116873 -0.280221 -0.952794 107 80 63
-4.19789 1.68435 0.707194 -0.218367 -0.582536 -0.782922 92 62 43
-4.13015 1.67639 0.706906 -0.103239 -0.676011 -0.729624 114 81 57
-4.12834 1.67284 0.723505 -0.123832 -0.483398 -0.866598 115 82 57
-4.10823 2.19024 0.773629 0.12307 -0.648178 -0.751478 160 99 97
-4.14457 2.21183 0.753037 0.278429 -0.416913 -0.865252 150 34 30
-4.16034 2.21202 0.749469 0.225439 -0.39553 -0.890356 144 37 35
-4.0158 2.13656 0.556478 0.725405 -0.619599 -0.299808 212 183 143
-3.89753 2.26451 0.920849 0.758569 -0.649133 0.0565625 196 59 55
-3.9264 2.27335 0.934236 0.249542 -0.960845 -0.120437 190 49 45
-4.01814 2.13799 0.578949 0.958064 -0.28625 0.0132198 205 171 132
-4.24261 1.7106 0.698674 -0.280704 -0.436504 -0.854792 108 84 70
-4.23002 1.71138 0.697091 -0.275808 -0.420684 -0.864266 97 72 56
-4.23486 1.70029 0.70146 -0.295468 -0.359105 -0.885292 107 84 70
-4.22598 1.69908 0.699678 -0.115657 -0.283179 -0.952068 104 79 61
-4.20018 1.70021 0.698411 -0.13268 -0.541013 -0.830482 90 61 42
-4.18697 1.6996 0.695083 -0.127817 -0.506689 -0.852602 110 79 59
-4.19788 1.69518 0.700574 -0.14096 -0.556407 -0.818866 89 61 42
-4.15585 1.69574 0.693654 0.00724506 -0.644122 -0.764888 113 81 57
-3.90466 2.26058 0.867897 0.231835 -0.958593 0.165381 188 65 64
-3.99716 2.1892 0.99064 0.958055 -0.0661716 -0.278839 198 187 184
-4.0026 2.3002 0.614497 0.624579 -0.774912 0.0970218 200 199 197
-3.91361 2.24942 0.896455 0.595656 -0.778103 0.199374 171 52 49
-4.065 2.23189 1.15471 0.8694 -0.416697 -0.265531 194 199 207
-3.94529 2.26801 0.930522 0.0923801 -0.935074 0.342202 175 46 43
-3.96196 2.2745 0.947138 0.49496 -0.735506 -0.462651 171 42 39
-3.95813 2.26515 0.958826 0.836758 -0.432093 -0.336352 162 41 39
-3.92549 2.25787 0.975295 0.232571 -0.960826 0.150747 176 43 40
-4.05234 2.23773 1.16222 0.790766 0.0580007 -0.609364 194 199 205
-4.04996 2.24024 1.19742 0.993141 -0.0855697 -0.0796773 192 200 208
-4.30842 1.59894 0.838383 0.783102 -0.621348 0.026047 56 57 56
-4.10434 2.32444 1.08061 0.895413 -0.440512 -0.0646861 188 80 18
-3.98314 2.27132 1.02696 0.183683 -0.661113 0.727455 110 77 92
-3.95537 2.26659 1.01287 0.410373 -0.763132 0.499223 120 112 127
-3.94283 2.26118 0.982976 0.695165 -0.655184 0.29577 162 45 44
-3.94535 2.26659 1.0044 0.470193 -0.68413 0.55757 139 54 57
-3.95528 2.25824 1.00275 0.379307 -0.794712 0.473876 121 108 122
-4.22732 1.56968 1.16921 -0.252024 -0.50767 -0.823866 32 34 34
-3.94572 2.25716 0.994775 0.40552 -0.766854 0.497482 148 50 51
-4.21755 1.58142 1.14174 -0.0248736 -0.431022 -0.901998 32 34 37
-3.94499 2.2581 0.99442 0.431809 -0.721511 0.54126 148 58 60
-4.0033 2.30924 0.584132 0.504329 -0.683568 -0.527624 209 213 220
-3.99902 2.29729 0.597858 0.439963 -0.868891 0.226852 203 205 209
-3.99734 2.19203 0.966114 0.982462 -0.139692 -0.123513 149 52 49
-4.21861 1.72718 0.685955 -0.140204 -0.481008 -0.865433 79 53 37
-3.85251 1.41816 2.0699 -0.394025 -0.623204 -0.675545 80 77 80
-3.83323 1.39737 2.10932 -0.342776 -0.771856 -0.535485 77 76 75
-3.89051 1.40314 2.11075 -0.339103 -0.779771 -0.526276 43 43 45
-3.85665 1.41962 2.09874 -0.351657 -0.791447 -0.499949 76 74 77
-3.95252 1.42303 2.44854 -0.736778 -0.00389562 -0.676124 93 96 98
-3.99475 1.37916 2.22676 -0.774063 -0.510587 -0.374337 104 104 103
-3.98447 1.38668 2.19981 -0.589302 -0.738471 -0.327695 101 106 105
-3.91614 1.27484 2.4593 -0.435486 -0.124884 -0.891491 96 101 109
-3.94593 1.28313 2.48735 -0.434647 -0.122765 -0.892194 37 40 42
-3.94536 1.40824 2.43046 -0.881882 0.0151149 -0.471229 90 94 96
-3.83457 1.35476 2.14543 -0.319632 -0.899888 -0.29671 95 96 99
-3.94752 1.43632 2.45048 -0.91622 -0.340585 -0.211053 106 109 114
-3.94904 1.28179 2.48395 -0.479354 -0.108455 -0.870894 53 55 56
-3.94552 1.27998 2.47856 -0.4383 -0.120058 -0.890775 54 56 57
-3.85088 1.35936 2.16392 -0.677873 -0.638058 -0.365198 112 115 118
-3.86133 1.36108 2.17557 -0.331079 -0.895241 -0.298211 104 105 109
-3.94147 1.26702 2.48679 -0.462888 -0.085914 -0.882244 40 41 40
-3.92636 1.0962 2.45127 -0.708858 -0.122563 -0.694622 64 66 67
-3.92382 1.11529 2.44979 -0.713111 -0.100887 -0.693753 65 68 69
-3.9175 1.10099 2.4382 -0.720633 -0.0675721 -0.690016 69 71 72
-3.99499 1.38792 2.20846 -0.67021 -0.649515 -0.359095 104 109 109
-3.70466 1.39702 2.11073 -0.451466 -0.267931 -0.851112 72 73 73
-3.70087 1.39548 2.11834 -0.456977 -0.237986 -0.85705 81 81 81
-3.92996 1.30748 2.46242 -0.636552 -0.0191017 -0.770997 97 89 85
-3.93074 1.34342 2.46266 -0.646951 0.0312806 -0.76189 86 91 94
-3.90517 1.04937 2.38115 -0.972351 -0.170451 -0.159627 131 136 138
-3.90702 1.02553 2.38346 -0.96654 -0.202388 -0.157603 131 137 138
-3.90403 1.01127 2.38347 -0.970742 -0.1796 -0.159388 132 137 140
-3.70107 1.39543 2.11834 -0.456777 -0.23855 -0.857 81 81 81
-3.69882 1.38883 2.1218 -0.717287 -0.209841 -0.664429 77 79 82
-3.69978 1.39332 2.12094 -0.47715 -0.237807 -0.846035 76 78 79
-3.68557 1.3981 2.11841 -0.455778 -0.243511 -0.856136 76 76 74
-3.91427 1.39658 2.09518 -0.313831 -0.902348 -0.295429 73 74 77
-3.93514 1.40229 2.42678 -0.887275 -0.0559343 -0.457837 104 108 110
-3.94258 1.25103 2.47624 -0.606978 -0.154818 -0.779493 67 70 73
-3.91718 1.13304 2.44965 -0.736713 0.0375213 -0.675164 78 81 82
-3.96351 1.37236 2.15511 -0.551137 -0.714486 -0.430996 79 83 84
-3.93503 1.40192 2.42676 -0.880562 -0.0477599 -0.471519 104 108 110
-3.89127 1.3864 2.11278 -0.317233 -0.892402 -0.320908 73 74 76
-4.00805 1.39722 2.19219 -0.525493 -0.733887 -0.430426 94 99 97
-3.61399 1.38832 2.16184 -0.795162 -0.469186 -0.384164 79 81 79
-3.83351 1.3702 2.14195 -0.32498 -0.861502 -0.390131 88 90 92
-3.8724 1.36565 2.14807 -0.318854 -0.889281 -0.327889 103 104 107
-3.87226 1.37592 2.12542 -0.322139 -0.88655 -0.332048 79 80 83
-3.89512 1.37614 2.13145 -0.322657 -0.865777 -0.382521 90 92 95
-3.94365 1.37681 2.17127 -0.392897 -0.834158 -0.387055 61 65 66
-3.97194 1.36769 2.13866 -0.388179 -0.869688 -0.304893 52 55 56
-3.96463 1.37666 2.17879 -0.418618 -0.817676 -0.395178 73 76 76
-3.90836 1.1758 2.43669 -0.71621 -0.0910742 -0.691917 72 73 71
-3.98224 1.37615 2.21384 -0.661974 -0.653841 -0.366446 110 115 115
-3.7663 1.37881 2.12113 -0.43587 -0.338865 -0.833779 79 83 88
-3.95864 1.33777 2.47398 -0.649011 0.0463549 -0.759365 65 67 65
-3.9478 1.31398 2.4866 -0.645407 0.0389112 -0.762847 73 70 68
-3.94138 1.31011 2.48035 -0.640055 0.00832729 -0.768284 68 64 61
-3.73388 1.45553 2.49992 -0.155064 0.173445 -0.97256 48 44 38
-3.92393 1.0988 2.41217 -0.879128 -0.0850817 -0.468929 91 94 95
-3.848 1.37906 2.35031 -0.982685 -0.0548457 -0.176981 117 114 111
-3.90641 1.3361 2.36881 -0.982804 -0.00439379 -0.184602 70 60 54
-3.85424 1.38446 2.35386 -0.982443 -0.059099 -0.176955 109 105 101
-3.96467 1.42939 2.4674 -0.779265 0.0841739 -0.621016 101 104 105
-3.85972 1.38951 2.35737 -0.981921 -0.0288579 -0.187077 115 113 110
-3.92085 1.12356 2.43924 -0.784717 -0.0397787 -0.618576 79 82 84
-3.92424 1.11091 2.44881 -0.73879 -0.0158141 -0.67375 73 76 77
-3.95751 1.26756 2.49679 -0.437926 -0.172916 -0.882225 57 60 61
-3.94457 1.26868 2.47561 -0.616456 -0.110663 -0.779574 75 78 79
-3.92402 1.36182 2.16615 -0.337781 -0.855675 -0.392077 84 88 88
-3.91259 1.3594 2.38961 -0.975879 -0.148495 -0.160031 93 91 89
-3.91259 1.3594 2.38961 -0.975879 -0.148495 -0.160031 93 91 89
-3.79846 1.40505 2.10011 -0.383733 -0.585296 -0.714267 72 70 69
-3.93135 1.36643 2.46448 -0.628553 -0.0616449 -0.77532 45 49 53
-3.91333 1.23096 2.47053 -0.443598 -0.0761081 -0.892989 42 45 52
-3.92797 1.36331 2.41223 -0.969144 -0.190086 -0.156932 101 105 106
-3.91259 1.3594 2.38961 -0.975879 -0.148495 -0.160031 86 90 92
-3.97944 1.42127 2.47244 -0.755206 0.102823 -0.647372 95 99 102
-3.81369 1.40211 2.11303 -0.344631 -0.773884 -0.531351 76 75 74
-3.92966 1.32556 2.46235 -0.639766 -0.00407973 -0.768559 94 88 84
-3.93295 1.24126 2.45575 -0.729917 -0.0141843 -0.683389 84 86 86
-3.81349 1.40322 2.1103 -0.350792 -0.733476 -0.582201 75 74 73
-3.94396 1.25934 2.48397 -0.601854 -0.173654 -0.779498 73 75 76
-3.94406 1.26141 2.46802 -0.594802 -0.21375 -0.774933 72 75 75
-3.93455 1.12772 2.43313 -0.837756 -0.00819735 -0.545983 81 84 85
-3.89914 1.18706 2.44104 -0.713417 -0.100371 -0.693514 71 72 71
-3.94445 1.36532 2.18996 -0.340008 -0.830944 -0.440372 72 77 80
-3.90372 1.3618 2.15595 -0.327625 -0.840115 -0.432284 87 90 95
-3.90304 1.36143 2.1563 -0.328798 -0.833841 -0.443397 88 90 96
-3.94213 1.3828 2.12698 -0.39954 -0.7661 -0.503447 65 68 73
-3.92363 1.38737 2.13515 -0.340582 -0.837075 -0.428146 69 73 77
-3.92367 1.39833 2.11213 -0.328977 -0.82773 -0.454573 51 53 54
-3.96093 1.36263 2.195 -0.335393 -0.851187 -0.403722 84 89 89
-3.96496 1.36306 2.19114 -0.643241 -0.687179 -0.337678 102 107 107
-3.83785 1.34799 2.17078 -0.66429 -0.670137 -0.331113 98 100 104
-3.84896 1.34753 2.17242 -0.662432 -0.651826 -0.369198 114 118 119
-3.86004 1.34742 2.17616 -0.660077 -0.6435 -0.387564 113 117 119
-3.8694 1.33503 2.18004 -0.723324 -0.596439 -0.34794 113 116 116
-3.87956 1.34996 2.18376 -0.581348 -0.718195 -0.382401 104 107 107
-3.94387 1.33243 2.48621 -0.651081 0.0673124 -0.756018 65 67 69
-3.90093 1.33985 2.20587 -0.672213 -0.65772 -0.339902 94 96 96
-3.92404 1.35111 2.18887 -0.335502 -0.871076 -0.3587 92 94 95
-3.9443 1.35465 2.21561 -0.582836 -0.738078 -0.339916 101 105 105
-3.94785 1.39152 2.44138 -0.738066 -0.000313103 -0.674728 89 92 92
-3.95507 1.37989 2.471 -0.778701 -0.00724325 -0.627353 89 90 91
-3.94922 1.39002 2.46172 -0.860452 -0.194901 -0.470783 94 98 100
-3.92298 1.2604 2.46622 -0.418152 -0.210347 -0.883687 58 61 66
-3.93474 1.06525 2.45105 -0.874699 -0.207401 -0.438048 78 81 83
-3.93856 1.28754 2.46387 -0.632562 -0.038227 -0.773566 97 90 85
-3.96742 1.38115 2.48337 -0.638461 -0.00617471 -0.769629 82 84 84
-3.94604 1.37228 2.46141 -0.736914 0.0112455 -0.675893 98 101 101
-3.96889 1.37438 2.49178 -0.650963 0.0618345 -0.756587 80 82 82
-3.96769 1.36954 2.46982 -0.734662 -0.0789282 -0.673827 82 83 81
-3.96395 1.35742 2.49074 -0.661933 0.123615 -0.7393 80 82 82
-3.93031 1.23763 2.47815 -0.500966 -0.0618647 -0.863253 59 62 67
-3.8905 1.337 2.1906 -0.630366 -0.702103 -0.331195 113 116 116
-3.94472 1.40841 2.43248 -0.761078 0.06642 -0.645251 89 93 95
-3.94186 1.40669 2.42931 -0.881123 -0.00949907 -0.472792 90 94 96
-3.95936 1.4024 2.44845 -0.946822 -0.284606 -0.150094 89 94 97
-3.88098 1.2185 2.46117 -0.82992 -0.170779 -0.531101 37 39 39
-3.97764 1.40992 2.45593 -0.868006 -0.399728 -0.29459 77 81 83
-3.88452 1.21308 2.43047 -0.888286 0.0455551 -0.457026 87 90 89
-3.88492 1.21953 2.41957 -0.758012 -0.0166101 -0.652029 98 100 99
-3.97232 1.39777 2.46364 -0.860792 -0.166136 -0.481078 90 93 97
-3.70602 1.43118 2.4616 -0.278754 -0.370784 -0.885898 53 55 54
-3.70524 1.43142 2.46081 -0.279417 -0.357294 -0.891217 53 55 53
-3.93445 1.23386 2.3763 -0.900178 -0.0199747 -0.435063 79 82 83
-3.91892 1.48531 2.42461 -0.821989 -0.00015533 -0.569503 114 119 120
-3.92518 1.22788 2.3699 -0.950689 -0.0809476 -0.299396 80 83 85
-3.96298 1.09357 2.49389 -0.876553 0.0384503 -0.479767 91 93 94
-3.72411 1.46952 2.48428 -0.23387 0.0107245 -0.972209 35 33 30
-3.93731 1.10474 2.46219 -0.724094 -0.0336822 -0.688878 51 53 49
-3.96711 1.10496 2.49374 -0.879719 0.0175363 -0.47517 106 110 111
-3.91524 1.38057 2.39923 -0.95732 0.0687909 -0.280723 39 41 43
-3.96126 1.1718 2.4905 -0.942479 -0.0513841 -0.330293 107 112 112
-3.91759 1.25274 2.4608 -0.748105 0.0868498 -0.657873 80 83 84
-3.92357 1.47813 2.40657 -0.891155 -0.0516378 -0.45075 109 113 114
-3.94579 1.48829 2.44848 -0.974747 -0.107925 -0.195502 89 92 95
-3.95226 1.48661 2.46867 -0.779441 0.111189 -0.616529 90 92 94
-3.94038 1.48382 2.44659 -0.977273 0.0107438 -0.21171 83 87 92
-3.94159 1.48794 2.42552 -0.883243 0.053278 -0.465879 96 100 100
-3.94159 1.48794 2.42552 -0.883243 0.053278 -0.465879 96 100 100
-3.94712 1.22686 2.48242 -0.437677 -0.0984241 -0.893729 38 42 47
-3.91786 1.26006 2.36338 -0.98204 -0.0337431 -0.18563 102 106 110
-3.90695 1.06458 2.3844 -0.961462 -0.186211 -0.202275 113 117 119
-3.90712 1.06427 2.38449 -0.96062 -0.196252 -0.19671 113 117 119
-3.9274 1.08242 2.40613 -0.941841 -0.162639 -0.294083 97 101 103
-3.90047 1.22148 2.44477 -0.730084 -0.0122993 -0.683246 77 80 81
-3.91542 1.08583 2.39574 -0.953134 -0.178102 -0.244572 109 113 115
-3.91171 1.09479 2.3883 -0.96982 -0.135146 -0.202938 103 106 108
-3.9173 1.10114 2.39676 -0.958823 -0.139897 -0.247157 109 113 114
-3.9132 1.11008 2.38938 -0.974102 -0.0969086 -0.204287 105 109 111
-3.93383 1.14252 2.43288 -0.868376 0.067122 -0.491342 71 73 73
-3.91171 1.164 2.42671 -0.846432 0.00688188 -0.532453 75 77 77
-3.94888 1.49414 2.4584 -0.969143 -0.0274913 -0.244961 100 103 105
-3.91324 1.18194 2.42721 -0.815411 0.0390513 -0.577563 78 79 77
-3.90052 1.19308 2.41228 -0.767015 -0.0386351 -0.640465 98 101 100
-3.92971 1.37828 2.40945 -0.888449 -0.0433601 -0.456923 105 109 111
-3.91901 1.36511 2.39326 -0.975362 -0.151282 -0.160569 88 91 93
-3.93138 1.49273 2.40857 -0.902139 0.0555698 -0.427852 88 91 93
-3.6837 1.38417 2.13295 -0.729286 -0.083237 -0.679127 81 84 86
-3.9322 1.31135 2.38143 -0.884087 -0.00985673 -0.467218 80 78 75
-3.95304 1.31012 2.39226 -0.884553 0.00424263 -0.466421 82 78 76
-3.94337 1.30318 2.38706 -0.910088 -0.0276666 -0.41349 79 76 73
-3.91958 1.28246 2.36899 -0.955805 -0.0232086 -0.293083 64 66 69
-3.91605 1.29225 2.36342 -0.957551 -0.00945747 -0.28811 58 62 63
-3.91538 1.29223 2.36565 -0.966999 -0.00876692 -0.25463 63 65 66
-3.94104 1.2842 2.38217 -0.915364 0.0292481 -0.401563 91 89 89
-3.93274 1.29228 2.37934 -0.92978 -0.0138557 -0.367855 91 90 89
-3.95534 1.29875 2.42564 -0.882195 0.0596389 -0.467092 107 106 104
-3.93984 1.29854 2.47204 -0.636198 -0.0155068 -0.77137 63 58 55
-3.93929 1.3175 2.47878 -0.638599 -0.000444353 -0.76954 45 46 46
-3.97812 1.18262 2.4951 -0.877865 -0.00450502 -0.478887 107 112 112
-3.93541 1.22385 2.4799 -0.446311 -0.0586767 -0.892952 55 58 62
-3.89062 1.26929 2.33626 -0.824748 -0.0283925 -0.564787 77 79 81
-3.90644 1.25979 2.34461 -0.963853 0.0485677 -0.26197 83 87 89
-3.91675 1.27349 2.36765 -0.956659 -0.0163764 -0.290748 26 28 29
-3.92576 1.27309 2.37649 -0.904674 0.00310814 -0.426094 75 76 79
-3.94144 1.26973 2.38054 -0.917927 0.0761388 -0.389374 85 88 90
-3.93456 1.27802 2.37684 -0.90682 0.0609824 -0.417083 86 89 91
-3.93359 1.26479 2.37967 -0.924806 0.0155094 -0.380123 86 88 90
-3.93373 1.28661 2.4209 -0.640351 -0.0464079 -0.766679 89 83 78
-3.94712 1.28177 2.4205 -0.882453 0.00243001 -0.470395 110 110 107
-3.96081 1.39464 2.46492 -0.852262 -0.19296 -0.486226 90 93 97
-3.9221 1.23897 2.36357 -0.970647 -0.11748 -0.209863 83 86 88
-3.92726 1.3948 2.41711 -0.88948 -0.0230249 -0.456394 89 92 93
-3.90774 1.36851 2.38941 -0.974991 -0.15616 -0.158133 103 102 102
-3.92713 1.39455 2.4163 -0.885931 -0.0561512 -0.460405 89 93 93
-3.9349 1.25076 2.37665 -0.936805 -0.0321832 -0.348368 72 73 74
-3.86413 1.48501 2.36662 -0.963285 0.0246766 -0.267346 92 95 98
-3.89467 1.48762 2.32718 -0.97929 0.024012 -0.201033 99 101 107
-3.94215 1.25603 2.37919 -0.912863 0.0437289 -0.405917 74 76 79
-3.85609 1.46348 2.36192 -0.935723 0.0818744 -0.343101 82 83 86
-3.88193 1.46725 2.33742 -0.979369 0.0261031 -0.200388 113 115 118
-3.89811 1.4684 2.3189 -0.94751 0.0272903 -0.31856 102 104 108
-3.89078 1.44594 2.37164 -0.884246 0.0907212 -0.458125 89 92 93
-3.91131 1.46224 2.38866 -0.878906 0.0837457 -0.469585 80 83 85
-3.92706 1.30524 2.37391 -0.957228 -0.00559333 -0.28928 82 80 77
-3.84275 1.37396 2.34612 -0.98287 -0.027607 -0.182218 92 85 82
-3.85948 1.37542 2.35688 -0.982317 -0.0613469 -0.176889 95 92 89
-3.95321 1.38638 2.40588 -0.730683 -0.0553862 -0.680466 59 62 65
-3.92496 1.34611 2.37568 -0.976332 -0.0303459 -0.214139 80 83 85
-3.91361 1.32596 2.37107 -0.971114 -0.00868878 -0.238458 66 62 61
-3.93891 1.32488 2.37205 -0.885587 0.0629523 -0.460188 88 87 86
-3.93155 1.33584 2.37619 -0.977223 -0.0669612 -0.201373 86 85 84
-3.94754 1.35158 2.47591 -0.741029 -0.0188908 -0.671207 48 49 49
-3.92282 1.25182 2.3649 -0.974189 -0.0926162 -0.205861 84 87 90
-3.92232 1.31524 2.37167 -0.958338 0.000179768 -0.285637 83 76 71
-3.9436 1.30852 2.37489 -0.885523 0.0630547 -0.460298 93 91 89
-3.93535 1.30877 2.36973 -0.885108 -0.00797463 -0.465317 83 81 78
-3.86963 1.40006 2.36722 -0.981085 -0.0867607 -0.173047 107 106 105
-3.93004 1.31904 2.4705 -0.638803 -0.00356706 -0.769362 62 63 64
-3.90857 1.39864 2.38924 -0.982998 -0.0211325 0.182395 85 88 90
-3.9502 1.24773 2.49317 -0.463635 0.0391173 -0.885162 38 42 47
-3.94346 1.24122 2.48458 -0.590593 -0.224781 -0.775031 65 69 72
-3.90145 1.22299 2.47539 -0.602026 -0.176639 -0.778694 66 70 75
-3.91264 1.03152 2.39085 -0.959789 -0.211148 -0.18499 105 109 111
-3.9107 1.05545 2.38923 -0.962096 -0.19119 -0.19447 112 115 117
-3.9562 1.43904 2.44946 -0.934661 -0.309604 -0.174796 91 95 99
-3.96031 1.44432 2.45953 -0.946863 -0.278199 -0.161417 101 104 109
-3.92981 1.32608 2.46922 -0.638509 -0.00648592 -0.769587 79 81 82
-3.92214 1.35826 2.40781 -0.950586 -0.0527641 -0.305946 123 128 129
-3.84085 1.38094 2.33391 -0.945626 0.0810664 -0.314991 123 129 130
-3.91136 1.05497 2.39048 -0.960107 -0.193995 -0.201397 111 115 116
-3.96275 1.46724 2.46876 -0.779731 0.07348 -0.621789 102 103 101
-3.91471 1.0464 2.39349 -0.956858 -0.199705 -0.211049 103 106 108
-3.95239 1.46072 2.46542 -0.882672 0.00394729 -0.469973 94 96 101
-3.96288 1.45006 2.46862 -0.77995 0.0522636 -0.623656 101 102 102
-3.95243 1.44804 2.44922 -0.927533 -0.345764 -0.141878 89 92 94
-3.91962 1.07685 2.40281 -0.930224 -0.215311 -0.297195 106 110 112
-3.92643 1.40032 2.40181 -0.957698 0.0485422 -0.283652 98 101 103
-3.86003 1.41802 2.36066 -0.980759 -0.0652817 -0.183981 107 112 112
-3.85801 1.41192 2.3598 -0.981062 -0.0582833 -0.184715 108 113 112
-3.92764 1.40902 2.41394 -0.923386 0.00516406 -0.383838 106 109 111
-3.9276 1.40906 2.41334 -0.934696 0.00373277 -0.35543 106 110 111
-3.93174 1.41309 2.40239 -0.957317 0.0534849 -0.284047 100 103 105
-3.9415 1.41453 2.38655 -0.951703 -0.130107 -0.278087 120 122 124
-3.91533 1.04591 2.39503 -0.955989 -0.178048 -0.233202 102 106 107
-3.79041 1.39279 2.11676 -0.378926 -0.63953 -0.668893 77 78 75
-3.88551 1.20653 2.44576 -0.900531 0.199404 -0.386369 91 93 92
-3.85267 1.39252 2.10539 -0.342427 -0.775262 -0.530766 54 57 59
-3.8718 1.391 2.11613 -0.340677 -0.778762 -0.526753 62 65 68
-3.84311 1.38805 2.34725 -0.982906 -0.0457445 -0.178336 113 104 98
-3.60863 1.38313 2.13048 -0.390856 -0.568536 -0.723877 85 86 84
-3.61606 1.38348 2.1454 -0.430769 -0.729396 -0.531432 79 80 77
-3.66377 1.38656 2.11846 -0.660982 -0.41753 -0.623516 80 80 79
-3.6679 1.38538 2.12941 -0.7177 -0.228567 -0.657772 79 81 83
-3.66377 1.38656 2.11846 -0.660982 -0.41753 -0.623516 76 79 81
-3.6679 1.38538 2.12941 -0.7177 -0.228567 -0.657772 79 81 83
-3.68059 1.38439 2.1296 -0.729979 -0.0839739 -0.678292 80 83 85
-3.93275 1.32856 2.39179 -0.980331 -0.0982928 -0.171142 90 89 88
-3.85379 1.39904 2.35651 -0.982095 -0.0347839 -0.185147 114 112 110
-3.84769 1.39516 2.35372 -0.981749 -0.0828484 -0.171189 108 104 101
-3.86491 1.40898 2.36369 -0.980397 -0.0644654 -0.186187 122 123 121
-3.8545 1.42808 2.35728 -0.981658 -0.0533766 -0.183027 107 106 105
-3.9309 1.33995 2.41 -0.974583 -0.154077 -0.162627 116 120 120
-3.93584 1.34593 2.41765 -0.975001 -0.149573 -0.164321 102 102 101
-3.9326 1.34446 2.39513 -0.97922 -0.112294 -0.168873 89 88 88
-3.94 1.33629 2.41956 -0.965583 -0.207463 -0.156872 101 100 99
-3.8667 1.43671 2.36444 -0.981267 -0.0481179 -0.186546 124 126 125
-3.94408 1.34124 2.42486 -0.97018 -0.181069 -0.161139 99 99 98
-3.90085 1.19581 2.44856 -0.712062 -0.102533 -0.694589 78 78 72
-3.85972 1.4038 2.35894 -0.981612 -0.0399559 -0.18666 126 125 122
-3.91831 1.43411 2.41291 -0.961826 0.0303514 -0.271974 150 154 154
-3.93248 1.43134 2.42245 -0.884866 -0.0193128 -0.465446 118 121 123
-3.93346 1.43129 2.42292 -0.885179 -0.0234752 -0.464658 118 121 122
-3.92246 1.09172 2.40115 -0.958052 -0.142228 -0.248812 108 111 113
-3.94869 1.46855 2.45659 -0.967753 -0.0492603 -0.247037 127 130 138
-3.91733 1.46265 2.40524 -0.901508 0.116225 -0.416864 99 103 106
-3.91827 1.47181 2.40205 -0.860915 0.0918773 -0.500383 101 105 107
-3.91801 1.46544 2.41288 -0.882124 0.0105619 -0.470899 106 109 111
-3.95039 1.43051 2.43684 -0.880357 -0.022709 -0.473768 112 116 117
-3.94472 1.45578 2.43435 -0.95251 0.0262461 -0.303374 112 115 117
-3.86457 1.46874 2.36512 -0.963376 0.0189446 -0.267485 121 124 126
-3.87188 1.47403 2.36701 -0.978904 0.0309788 -0.201961 102 106 109
-3.91748 1.44911 2.41393 -0.901419 -0.00845426 -0.432865 120 125 126
-3.93181 1.45563 2.42656 -0.932678 0.0418098 -0.358278 99 102 103
-3.91747 1.44171 2.40415 -0.923448 -0.00986606 -0.383596 100 103 106
-3.95946 1.45847 2.4419 -0.949726 -0.0270648 -0.311911 108 110 114
-3.9135 1.07045 2.39329 -0.946011 -0.198366 -0.256348 110 114 116
-3.94088 1.42175 2.43003 -0.881289 -0.00148755 -0.472576 101 105 105
-3.9287 1.47292 2.42696 -0.88181 0.108407 -0.458976 105 108 110
-3.94161 1.42321 2.42954 -0.881608 0.00641787 -0.471939 101 105 106
-3.94181 1.42167 2.43046 -0.881092 -0.00682923 -0.472895 100 105 105
-3.92579 1.42462 2.41466 -0.931755 -0.0107637 -0.362928 106 110 111
-3.92611 1.42473 2.41621 -0.926194 -0.0125031 -0.37684 99 103 105
-3.92867 1.43032 2.40177 -0.917084 0.00720495 -0.39863 101 104 107
-3.91315 1.07043 2.39187 -0.95248 -0.222203 -0.208344 111 115 116
-3.91788 1.42517 2.40336 -0.916193 0.0422886 -0.398501 99 103 105
-3.91681 1.4318 2.39172 -0.920057 0.0235071 -0.39108 125 129 131
-3.93837 1.41537 2.38562 -0.959409 0.0289347 -0.280529 133 136 137
-3.91781 1.06075 2.39796 -0.959635 -0.133896 -0.247329 87 90 92
-3.91853 1.0608 2.39703 -0.948702 -0.20555 -0.240237 101 104 106
-4.03602 1.26171 2.80997 0.768521 -0.373891 -0.519212 26 26 27
-3.86881 1.07977 3.37143 0.84433 -0.119185 -0.5224 81 84 84
-3.85376 1.32003 3.17146 0.99024 0.12581 -0.0599675 73 78 83
-3.85764 1.32437 3.17052 0.987365 0.145299 -0.063229 71 76 81
-3.86377 1.32012 3.17306 0.990726 0.122694 -0.0583727 71 76 81
-4.02102 1.30044 3.19996 -0.751467 0.000663809 -0.65977 88 91 90
-3.65257 0.581751 2.92464 0.92861 -0.10918 -0.354631 61 65 63
-3.85064 1.06597 3.37543 0.843735 -0.0986969 -0.527608 87 89 89
-3.67709 0.587947 2.89241 0.986172 -0.00394452 -0.16568 31 32 31
-3.8638 1.06762 3.35599 0.844328 -0.0664618 -0.531689 73 74 74
-3.66337 0.575145 2.91943 0.933981 -0.189135 -0.303163 52 55 54
-3.86453 1.05531 3.36377 0.84175 -0.155939 -0.516856 74 76 76
-3.85762 1.06062 3.36923 0.834232 -0.0672642 -0.547296 81 83 83
-3.85759 1.06075 3.37005 0.843217 -0.114852 -0.525161 82 83 83
-3.91782 1.08934 3.33115 0.737877 0.160941 -0.655466 48 50 53
-3.92459 1.08159 3.33312 0.725127 0.0960023 -0.681891 51 53 56
-3.66931 0.585001 2.91141 0.94578 -0.174938 -0.273674 43 45 44
-3.86241 1.07058 3.37326 0.843972 -0.106326 -0.525743 83 85 86
-4.02454 1.26692 2.83817 0.681598 -0.606448 -0.409444 60 61 62
-3.65965 0.59203 2.91828 0.938661 -0.0740829 -0.33679 55 58 58
-3.65948 0.591786 2.91849 0.938937 -0.0755689 -0.335689 56 58 58
-3.66757 0.586601 2.91293 0.956065 -0.1908 -0.222566 45 48 46
-3.66887 0.586517 2.91212 0.956252 -0.19203 -0.220696 44 46 45
-4.04227 1.28082 2.91819 0.565694 -0.797287 -0.210534 30 31 33
-3.98347 1.27493 2.91416 0.210051 -0.91738 -0.338071 41 42 43
-3.64755 0.590275 2.86749 0.99435 0.0949028 -0.0475649 43 45 43
-4.03676 1.29018 3.21329 -0.752416 0.00394411 -0.658676 72 75 74
-3.90789 1.25213 2.83835 -0.253798 -0.530916 -0.808527 46 47 47
-4.01667 1.27874 2.81414 0.51131 -0.775068 -0.371256 63 63 62
-4.01906 1.28907 2.86611 0.596756 -0.700984 -0.390518 76 76 76
-3.79123 1.42114 2.51021 0.454941 -0.132811 -0.880563 68 79 96
-4.0942 1.08004 3.22929 -0.615154 -0.0357587 -0.787596 88 92 97
-4.09065 1.08154 3.22866 -0.740584 -0.044393 -0.670496 103 106 109
-4.11008 1.08028 3.24677 -0.612731 -0.0358175 -0.78948 75 78 80
-4.08513 1.05547 3.21958 -0.747455 -0.00362009 -0.664302 118 122 126
-4.08373 1.06228 3.21109 -0.749747 0.00496747 -0.661706 111 115 118
-4.08386 1.06513 3.22691 -0.745932 -0.00907171 -0.66596 104 107 110
-4.08523 1.06527 3.22726 -0.744782 -0.0162662 -0.667109 104 107 109
-3.86198 1.08437 3.37338 0.843889 -0.120635 -0.522779 85 88 88
-4.09039 1.04614 3.22912 -0.73718 -0.0605712 -0.672976 112 115 119
-4.09292 1.04312 3.21402 -0.741592 -0.0455517 -0.669303 121 125 129
-3.91683 1.48059 2.72377 0.929673 -0.279615 -0.239841 50 66 104
-3.93362 1.48959 2.71808 0.94568 -0.272476 -0.177333 54 77 127
-4.09555 1.02723 3.23123 -0.7373 -0.059082 -0.672976 102 105 108
-4.10497 1.02438 3.27274 -0.649199 0.152192 -0.745237 66 67 68
-4.10347 1.02889 3.26217 -0.650499 0.150478 -0.744451 73 76 76
-3.92058 1.48882 2.72605 0.94978 -0.254764 -0.181695 48 64 102
-3.92758 1.49243 2.71845 0.945546 -0.270712 -0.180713 54 77 127
-4.08389 1.16723 3.20938 -0.748526 -0.0127651 -0.662983 102 107 110
-4.09057 1.15909 3.21964 -0.742401 -0.0417612 -0.668653 113 118 121
-4.08618 1.17085 3.22602 -0.741056 -0.0445778 -0.669962 109 113 116
-4.08841 1.14195 3.21903 -0.742285 -0.0414808 -0.668798 106 111 114
-4.0907 1.15183 3.22971 -0.75195 -0.0375666 -0.658149 108 112 115
-4.08797 1.14886 3.21079 -0.7466 -0.0237696 -0.664848 103 108 111
-4.09239 1.12328 3.22051 -0.73836 -0.062673 -0.671488 96 100 103
-4.09773 1.12924 3.21411 -0.742813 -0.0437409 -0.668069 108 112 115
-4.09352 1.13637 3.25029 -0.612552 -0.034936 -0.789658 74 77 81
-4.07675 1.1091 3.2158 -0.742176 -0.0403204 -0.668991 99 102 106
-4.09654 1.07319 3.23942 -0.740815 -0.035674 -0.670761 100 104 105
-4.08273 1.11797 3.22555 -0.741178 -0.0409737 -0.670057 94 98 101
-4.08692 1.11409 3.21096 -0.742067 -0.0461169 -0.668738 99 104 107
-4.10082 1.10692 3.23939 -0.741012 -0.0365618 -0.670496 94 97 98
-4.08684 1.08923 3.21939 -0.744946 -0.0229276 -0.666731 108 111 115
-4.07631 1.10206 3.22376 -0.739111 -0.0528667 -0.671506 90 93 96
-4.08264 1.09751 3.20992 -0.740244 -0.0563364 -0.669973 100 104 108
-4.10283 1.08904 3.2403 -0.748865 0.0126896 -0.662601 93 96 98
-4.08751 1.07161 3.22001 -0.740816 -0.0458164 -0.670143 108 112 115
-4.08707 1.07905 3.21177 -0.740618 -0.0527269 -0.669855 110 114 118
-3.64366 0.502891 2.96232 0.833941 -0.296145 -0.465661 67 71 73
-3.73163 1.40545 2.53907 0.481244 -0.249884 -0.840215 50 58 74
-3.74833 1.40501 2.53078 0.483564 -0.231355 -0.84418 53 62 77
-3.77059 1.41282 2.54134 0.48458 -0.25508 -0.836729 59 69 92
-3.79004 1.4211 2.50786 0.398155 -0.164609 -0.902428 67 78 96
-3.79181 1.42079 2.50799 0.398948 -0.164419 -0.902113 68 79 96
-3.92957 1.49952 2.71488 0.934635 -0.284587 -0.213233 54 77 126
-3.92199 1.49545 2.71972 0.930689 -0.215341 -0.295715 52 62 88
-3.92166 1.49537 2.72001 0.930654 -0.215911 -0.295409 52 61 88
-3.9172 1.49915 2.7238 0.927677 -0.16805 -0.333429 51 60 87
-3.87333 1.48066 2.74593 0.918732 -0.178536 -0.352216 54 76 125
-3.91675 1.48051 2.72404 0.929717 -0.278657 -0.240781 50 66 104
-4.03878 1.25132 2.84061 0.766606 -0.369915 -0.52486 25 25 26
-4.05165 1.26672 2.8945 0.36551 -0.911924 -0.186537 64 64 66
-4.07767 1.26309 2.94456 0.68141 -0.730953 -0.0372526 59 59 60
-4.09891 1.26892 2.98082 0.365098 -0.911534 -0.189234 60 60 61
-4.07834 1.2721 2.97123 0.436616 -0.886873 -0.151075 62 62 64
-4.01933 1.26629 2.93592 0.480336 -0.84953 -0.21812 60 60 62
-4.04832 1.26446 2.99774 0.348981 -0.914654 -0.204011 67 68 69
-4.04832 1.26446 2.99774 0.348981 -0.914654 -0.204011 67 68 69
-3.98189 1.25923 2.94094 0.101544 -0.875642 -0.472164 33 34 34
-4.02402 1.26132 2.80656 0.711105 -0.56521 -0.418171 51 51 52
-4.08162 1.25286 2.91147 0.750435 -0.648338 -0.128471 55 55 57
-4.09433 1.01546 3.25026 -0.654517 0.171787 -0.736272 86 91 97
-3.89544 1.47823 2.73506 0.924795 -0.249031 -0.287642 54 76 126
-3.88066 1.47789 2.74622 0.919766 -0.189151 -0.343879 54 76 125
-3.87584 1.46981 2.74672 0.934114 -0.240041 -0.26422 54 76 126
-3.87797 1.471 2.75331 0.908386 -0.381327 -0.171535 54 76 125
-3.88714 1.08286 3.3305 0.317521 -0.14707 -0.936777 69 72 76
-3.90724 1.08321 3.34035 0.457986 -0.052162 -0.887428 61 64 67
-3.87181 1.4333 2.60591 0.948895 -0.25752 -0.182433 61 77 111
-3.87171 1.43335 2.60627 0.949514 -0.254944 -0.182829 61 77 111
-3.88738 1.44475 2.5774 0.959177 -0.168709 -0.226975 61 75 105
-3.90987 1.09798 3.3219 0.740555 0.171397 -0.64977 56 59 62
-3.91782 1.08934 3.33115 0.737877 0.160941 -0.655466 52 55 58
-3.92258 1.10805 3.32545 0.744289 0.171952 -0.645342 57 59 62
-3.90275 1.10693 3.31548 0.804988 0.174503 -0.567048 65 67 70
-3.91434 1.11817 3.32537 0.755168 0.212163 -0.620249 62 65 67
-3.90087 1.11088 3.33757 0.353722 -0.0110591 -0.935285 77 79 81
-3.90872 1.12609 3.30585 0.790693 0.213153 -0.573908 84 86 88
-3.90731 1.12709 3.31537 0.76408 0.226424 -0.604081 68 70 73
-3.8778 1.43604 2.59603 0.954956 -0.23171 -0.185387 61 76 111
-3.90048 1.44472 2.57042 0.961739 -0.0332543 -0.271942 60 75 107
-3.86658 1.43645 2.6075 0.955997 -0.225432 -0.187752 60 75 110
-3.97435 1.28595 2.5193 -0.481149 -0.137833 -0.865735 60 63 65
-3.89499 1.32915 3.18956 0.899554 0.321093 -0.296144 93 102 114
-4.03823 1.26768 2.70883 0.8227 -0.324334 -0.466876 20 21 23
-3.9053 1.23265 3.16046 -0.529214 -0.0948308 -0.843173 56 60 64
-3.90997 1.20985 3.13999 0.451404 0.0219526 -0.89205 17 17 19
-3.93848 1.08105 3.31818 0.835615 0.0605683 -0.545967 44 47 49
-3.94633 1.25789 2.50667 -0.573366 -0.106278 -0.812377 61 65 66
-3.96891 1.27212 2.52597 -0.360845 -0.5131 -0.778794 53 56 58
-3.95925 1.09247 2.50894 -0.19676 -0.890752 -0.409691 47 50 51
-4.0885 1.16309 3.23504 -0.745462 -0.0143302 -0.666394 103 106 108
-3.89539 1.43635 2.56761 0.97038 -0.126284 -0.205948 62 75 104
-3.8943 1.44558 2.59097 0.968538 -0.126355 -0.214401 68 79 98
-3.80207 1.4227 2.51084 0.387787 -0.144877 -0.910292 65 72 85
-3.89928 1.4648 2.59311 0.970981 -0.131214 -0.199946 64 73 92
-3.81403 1.44454 2.52069 0.489 -0.130063 -0.862533 64 71 81
-3.80557 1.44241 2.51916 0.487857 -0.12893 -0.86335 76 81 88
-3.93442 1.48447 2.56507 0.970281 -0.101256 -0.219777 54 64 81
-3.7695 1.45295 2.51025 0.331807 0.0234168 -0.943057 54 53 51
-3.75338 1.45828 2.51535 -0.184829 0.129707 -0.974174 62 57 49
-4.10057 1.30814 3.24405 -0.734734 -0.0737277 -0.674336 76 78 77
-3.91099 1.1547 3.33401 0.474456 0.222384 -0.851726 74 76 78
-3.89043 1.15348 3.33645 0.543193 0.145996 -0.826817 79 81 84
-4.09611 1.28806 3.24106 -0.734236 -0.0765006 -0.67457 74 76 75
-3.6085 0.606055 2.86458 0.810365 0.552048 -0.196346 74 76 76
-4.02246 1.2724 2.78194 0.805202 -0.377853 -0.45703 58 58 58
-4.0225 1.29078 2.86949 0.641899 -0.599984 -0.477477 81 80 79
-4.02425 1.29014 2.87809 0.603139 -0.774743 -0.189728 80 80 78
-4.10045 1.29462 3.23418 -0.731478 -0.0937306 -0.675392 77 79 78
-3.8691 1.14596 3.33454 0.515018 0.0108368 -0.857111 57 58 59
-4.02354 1.27352 2.78613 0.804377 -0.377434 -0.458826 58 58 58
-3.88879 1.4269 2.55967 0.971037 -0.130332 -0.200254 62 79 113
-3.78886 1.40566 2.50903 0.48667 -0.22013 -0.845396 79 89 107
-3.80594 1.40673 2.50188 0.414108 -0.0654138 -0.907874 75 83 97
-3.78645 1.40326 2.50385 0.486752 -0.193793 -0.851773 67 80 102
-3.8901 1.41278 2.76203 0.963957 -0.177219 -0.198443 45 63 102
-3.8688 1.41557 2.62809 0.955314 -0.22795 -0.188185 66 81 115
-3.87605 1.41896 2.62218 0.956772 -0.221836 -0.188083 65 81 115
-3.87585 1.4172 2.59216 0.969439 -0.14124 -0.2006 65 81 116
-3.87924 1.4175 2.57267 0.970167 -0.136175 -0.200582 65 80 116
-3.88654 1.42202 2.75617 0.966206 -0.161053 -0.201267 54 67 97
-3.78964 1.39532 2.52397 0.487463 -0.217553 -0.845607 84 94 113
-4.02806 1.28097 3.20221 -0.74839 -0.0141534 -0.663108 67 71 71
-3.61341 0.608081 2.83988 0.692284 0.598695 -0.402874 55 58 57
-3.94603 1.0817 3.32216 0.845595 -0.00907822 -0.533748 18 20 22
-3.91588 1.25696 3.15588 -0.667765 -0.326525 -0.668933 72 76 81
-3.88426 1.4189 2.55825 0.970824 -0.131582 -0.200467 64 80 115
-3.9086 1.42584 2.74445 0.970671 -0.120255 -0.208176 57 69 96
-3.91049 1.42586 2.7435 0.970703 -0.125654 -0.20481 57 69 96
-3.91227 1.43322 2.74298 0.969301 -0.140162 -0.202017 57 66 89
-3.91746 1.42982 2.74226 0.964365 -0.144966 -0.221326 57 66 90
-3.8657 1.42201 2.63243 0.944242 -0.274467 -0.181866 67 81 111
-3.86862 1.42946 2.63212 0.939889 -0.279093 -0.196762 71 84 113
-3.87041 1.42184 2.62243 0.95632 -0.223215 -0.18875 64 80 114
-3.87388 1.42275 2.60445 0.957472 -0.202625 -0.205404 64 80 114
-3.74406 1.39586 2.54515 0.458919 -0.222174 -0.860251 55 64 80
-3.87982 1.42483 2.59216 0.969679 -0.139849 -0.200413 64 80 115
-3.8829 1.43278 2.59391 0.954974 -0.231914 -0.185045 62 77 113
-3.8767 1.42983 2.60197 0.945443 -0.271232 -0.180476 63 78 112
-3.88566 1.4279 2.58437 0.964055 -0.183782 -0.191892 63 79 114
-3.88685 1.43253 2.57119 0.97117 -0.127261 -0.201577 61 77 112
-3.88142 1.4239 2.56684 0.970477 -0.133973 -0.200564 63 79 114
-3.87863 1.4289 2.57568 0.970107 -0.135926 -0.201039 62 78 113
-3.87124 1.42766 2.61457 0.949531 -0.254536 -0.183312 62 78 113
-3.85529 1.3309 3.17076 0.98286 0.170932 -0.0690571 72 76 81
-3.85625 1.34194 3.17056 0.979184 0.189437 -0.0728905 76 81 88
-3.85497 1.33098 3.17053 0.982575 0.17255 -0.0690866 72 76 81
-3.85446 1.33098 3.1706 0.98269 0.171806 -0.0693069 72 76 82
-3.85022 1.33568 3.17178 0.982384 0.173013 -0.0706267 79 83 90
-3.85521 1.33088 3.17061 0.982766 0.171495 -0.0690026 72 76 81
-3.85497 1.33098 3.17053 0.982575 0.17255 -0.0690866 72 76 81
-3.85446 1.33098 3.1706 0.98269 0.171806 -0.0693069 72 76 82
-3.84908 1.33469 3.17136 0.982575 0.172098 -0.0702092 79 83 90
-3.86207 1.35359 3.17685 0.984496 0.161999 -0.0672631 79 83 91
-3.86651 1.34908 3.17698 0.98175 0.176448 -0.070949 74 75 74
-3.86264 1.35296 3.17523 0.97615 0.203405 -0.0758794 78 82 89
-3.84183 1.35539 3.17462 -0.0872134 -0.488976 -0.867926 77 78 78
-3.85085 1.36209 3.17405 0.940569 0.0272845 -0.338504 88 93 102
-3.8525 1.373 3.17708 0.954543 0.0262846 -0.296912 89 94 103
-3.84248 1.3735 3.18276 -0.320903 -0.0833683 -0.943436 77 77 77
-3.9233 1.02429 3.37448 0.90455 0.179504 -0.386739 76 79 84
-3.86724 1.04103 3.35903 0.773656 0.0749942 -0.629152 85 87 86
-3.85585 1.33625 3.17169 0.981334 0.178578 -0.071376 77 82 89
-3.97514 1.35175 2.50902 -0.405255 -0.886194 -0.224562 53 56 57
-3.87378 1.08856 3.36772 0.844919 -0.106918 -0.5241 77 80 80
-3.8504 1.07746 3.38048 0.843898 -0.0833916 -0.529983 90 92 92
-3.65897 0.593768 2.91836 0.940385 -0.0452918 -0.337081 56 59 59
-3.64521 0.598082 2.91566 0.98609 -0.129819 -0.1038 65 67 67
-3.76304 1.47518 2.51723 -0.222014 0.0468553 -0.973917 34 30 23
-3.85019 1.33567 3.17172 0.982427 0.173058 -0.0699107 79 83 90
-3.86353 1.33764 3.17406 0.985843 0.15408 -0.0661265 71 75 81
-3.86332 1.33775 3.17405 0.985962 0.153054 -0.0667332 71 75 81
-3.86264 1.33769 3.17369 0.985352 0.155476 -0.070057 71 75 81
-3.64233 0.588593 2.93006 0.945401 -0.116107 -0.304525 75 78 78
-3.86446 1.3314 3.17291 0.984584 0.161996 -0.0659661 70 75 81
-3.86428 1.34289 3.17453 0.984637 0.161447 -0.0665263 76 80 88
-3.86459 1.34295 3.17511 0.980668 0.165711 -0.104073 76 81 88
-3.85812 1.34218 3.17376 0.982363 0.146874 -0.115723 77 82 89
-3.85492 1.331 3.17077 0.982659 0.172112 -0.0689904 72 76 82
-3.76316 1.47545 2.51731 -0.220708 0.0511308 -0.973999 34 30 23
-3.86509 1.13118 3.34582 0.837713 0.0184711 -0.545798 102 105 107
-4.09315 1.31511 3.23395 -0.721489 -0.136189 -0.6789 86 88 87
-4.10517 1.32168 3.24514 -0.737955 -0.0594561 -0.672226 71 73 73
-3.91393 1.14869 3.31645 0.776833 0.239952 -0.582198 88 91 93
-3.90078 1.14007 3.32243 0.750282 0.207574 -0.627686 96 99 102
-3.85454 1.1436 3.37441 0.841451 -0.0217524 -0.539896 99 102 102
-3.8733 1.16421 3.17668 0.80093 0.0356902 -0.597694 86 89 91
-3.87985 1.19049 3.17347 0.0570302 0.182512 -0.981548 42 44 47
-3.90675 1.1622 3.33197 0.563823 0.168208 -0.808585 74 77 78
-3.84212 1.03985 3.37006 0.775114 0.105329 -0.62298 103 106 106
-4.09165 1.3035 3.22468 -0.728056 -0.112314 -0.676255 87 89 91
-3.89778 1.21728 3.14935 0.558943 -0.0222799 -0.828907 26 27 27
-3.96038 1.17144 3.05758 0.141973 -0.84923 -0.508578 23 25 25
-3.93432 1.04779 3.3434 0.801219 0.103284 -0.589389 49 51 54
-3.92673 1.05184 3.33971 0.791133 -0.140821 -0.595212 67 71 74
-3.92673 1.05185 3.33973 0.791343 -0.140221 -0.595075 67 71 74
-3.92674 1.05177 3.33924 0.792219 -0.137423 -0.594562 67 70 74
-3.85286 1.05097 3.36722 0.755577 0.0115126 -0.654959 98 101 101
-3.95139 1.06984 3.27759 0.470676 -0.833558 -0.289215 35 37 38
-3.87294 1.07516 3.34008 0.540718 -0.182602 -0.821146 84 86 87
-3.8596 1.08867 3.36801 0.747679 -0.119492 -0.653221 96 100 100
-3.87472 1.09275 3.33651 0.53054 0.0478311 -0.846309 103 107 109
-3.87524 1.12482 3.33412 0.413757 0.0455832 -0.909245 104 108 110
-3.87402 1.08512 3.16125 0.50801 -0.0100794 -0.861292 67 71 71
-3.87265 1.09536 3.1918 0.812045 0.142169 -0.566014 91 94 96
-3.88351 1.10966 3.33696 0.373823 0.0312021 -0.926975 104 108 111
-3.86646 1.10792 3.3336 0.585985 0.0627801 -0.807886 106 109 112
-3.85486 1.12369 3.37962 0.826718 0.079615 -0.556955 105 108 109
-3.8441 1.11303 3.38756 0.832052 -0.0146887 -0.554503 107 110 110
-3.95233 1.11467 3.14761 0.816214 0.0268265 -0.577127 26 26 27
-3.86515 1.10491 3.17264 0.362098 0.0604444 -0.930178 83 85 87
-3.88551 1.13529 3.33638 0.510943 0.136891 -0.848645 106 109 112
-3.87471 1.12495 3.33375 0.493388 0.0490439 -0.868426 105 108 110
-3.85198 1.10389 3.37443 0.811946 0.0637093 -0.580246 103 106 106
-3.68219 0.524628 2.89388 0.993207 -0.113552 -0.0253974 52 54 53
-3.93617 1.07793 3.14752 0.809835 0.0218227 -0.586252 29 30 30
