ply
format ascii 1.0
element vertex 720
property float x
property float y
property float z
property float nx
property float ny
property float nz
property uchar diffuse_red
property uchar diffuse_green
property uchar diffuse_blue
end_header
-1.17167 0.959207 2.52018 -0.980611 0.119894 -0.155007 103 198 105
-1.2001 1.11575 2.55735 -0.642054 -0.168809 -0.747844 103 198 105
-1.18229 1.00563 2.51475 -0.953538 -0.101385 -0.283701 103 198 105
-1.24827 0.804577 2.63892 -0.924047 0.0161219 -0.38194 103 198 105
-1.22361 1.0009 2.60469 -0.766818 -0.0409753 -0.640556 103 198 105
-1.20686 0.992365 2.58529 -0.965635 -0.0752186 -0.248777 103 198 105
-1.17232 0.979095 2.51361 -0.992882 0.0163969 -0.117972 103 198 105
-1.1783 1.05617 2.50398 -0.927106 -0.00963195 -0.374675 103 198 105
-1.2155 1.0012 2.55615 -0.995277 0.0372113 -0.0896675 103 198 105
-1.17389 0.997562 2.50972 -0.986705 -0.0444353 -0.156328 103 198 105
-1.25125 1.13884 2.56381 -0.271882 -0.0947271 -0.957657 103 198 105
-1.22115 1.13023 2.56984 -0.890487 -0.190884 -0.413033 103 198 105
-1.25491 1.01564 2.60195 -0.993326 -0.0193133 -0.113709 103 198 105
-1.19667 0.912595 2.65384 -0.822469 -0.509421 -0.253051 103 198 105
-1.21007 1.12466 2.57139 -0.889435 -0.141595 -0.434575 103 198 105
-1.191 1.05655 2.52726 -0.652258 0.0252312 -0.757577 103 198 105
-1.21858 0.938884 2.6543 -0.476278 -0.0115593 -0.879219 103 198 105
-1.2067 1.14772 2.55562 -0.626883 -0.133309 -0.767624 103 198 105
-1.29187 0.758301 2.67172 -0.932415 -0.0359032 -0.359601 103 198 105
-1.2264 1.11874 2.58588 -0.829019 -0.130686 -0.543736 103 198 105
-1.22431 1.10805 2.57084 -0.872495 -0.107209 -0.476717 103 198 105
-1.28071 0.73029 2.67175 -0.978481 -0.089324 -0.185999 103 198 105
-1.17663 1.03566 2.508 -0.917193 0.0113935 -0.39828 103 198 105
-1.17356 0.896976 2.5247 -0.921614 -0.0606276 0.383343 103 198 105
-1.17404 0.896601 2.52623 -0.920827 -0.0528867 0.386369 103 198 105
-1.17763 0.887937 2.5311 -0.920709 -0.0533014 0.386592 103 198 105
-1.17639 0.887284 2.51127 -0.922171 -0.133329 0.363075 103 198 105
-1.1735 0.895767 2.50411 -0.923246 -0.132363 0.360688 103 198 105
-1.16378 0.886527 2.50011 -0.913387 -0.139038 0.382613 103 198 105
-1.26243 1.15678 2.56475 -0.134923 -0.109455 -0.984792 103 198 105
-1.22002 0.949292 2.64534 -0.990841 -0.0733007 -0.113404 103 198 105
-1.18847 0.948649 2.56322 -0.996504 0.0112474 -0.0827835 103 198 105
-1.21977 1.15542 2.56515 -0.796125 -0.139025 -0.588946 103 198 105
-1.16906 0.914291 2.50755 -0.952763 0.0378757 0.301345 103 198 105
-1.1536 1.1766 2.51972 -0.980514 0.133729 -0.143909 103 198 105
-1.1706 0.923075 2.53957 -0.920486 0.0986327 0.378122 103 198 105
-1.2246 0.939646 2.66009 -0.996759 -0.0235825 -0.0769171 103 198 105
-1.2863 0.749079 2.69587 -0.681805 -0.046628 -0.730047 103 198 105
-1.17948 0.922922 2.51189 -0.92207 0.0868312 0.377156 103 198 105
-1.15105 1.16821 2.50849 -0.979227 0.142316 0.144431 103 198 105
-1.18567 0.99743 2.53825 -0.895837 -0.135137 -0.423338 103 198 105
-1.21566 1.02079 2.55292 -0.978861 -0.053305 -0.197458 103 198 105
-1.28477 0.748753 2.65994 -0.980397 -0.00516006 -0.196967 103 198 105
-1.1894 1.04481 2.51292 -0.853084 0.00910535 -0.521694 103 198 105
-1.21178 1.02173 2.53315 -0.995875 -0.0257851 -0.0869906 103 198 105
-1.25768 1.03665 2.59596 -0.945243 0.00046128 -0.326367 103 198 105
-1.2238 1.0656 2.57021 -0.800588 -0.0468432 -0.597382 103 198 105
-1.17705 0.922853 2.64515 -0.872329 -0.439398 -0.21441 103 198 105
-1.20009 0.931308 2.65298 -0.990372 -0.0708768 -0.118913 103 198 105
-1.27663 0.813329 2.67191 -0.933961 -0.0196387 -0.356834 103 198 105
-1.29323 0.833914 2.69423 -0.980131 -0.0397282 -0.194333 103 198 105
-1.21921 1.17742 2.56481 -0.897894 -0.0964474 -0.429517 103 198 105
-1.23443 1.02585 2.57543 -0.661403 -0.0395634 -0.748987 103 198 105
-1.18824 1.06586 2.51471 -0.925672 -0.0577176 -0.373899 103 198 105
-1.31225 0.947794 2.71308 -0.873746 -0.47391 -0.109446 103 198 105
-1.21404 1.03154 2.57566 -0.846905 0.0738255 -0.526594 103 198 105
-1.1574 1.15809 2.52205 -0.826807 -0.0033391 -0.562476 103 198 105
-1.22557 1.08663 2.57078 -0.830636 0.0611098 -0.553453 103 198 105
-1.24056 1.12168 2.56712 -0.25985 -0.0543581 -0.964118 103 198 105
-1.21395 1.01193 2.57876 -0.993056 0.0683225 -0.0957653 103 198 105
-1.17551 0.905287 2.5139 -0.960753 -0.0718368 0.267942 103 198 105
-1.15575 1.15018 2.50523 -0.890871 0.325704 0.316648 103 198 105
-1.16273 0.950177 2.51144 -0.99431 0.102711 0.0282393 103 198 105
-1.17431 0.838443 2.51352 -0.98467 0.174322 -0.00614285 103 198 105
-1.21603 1.07697 2.5519 -0.801877 0.0375933 -0.596306 103 198 105
-1.24826 1.07517 2.58827 -0.664275 -0.0271046 -0.746997 103 198 105
-1.22261 1.17825 2.59647 -0.899274 -0.0609661 -0.433116 103 198 105
-1.27475 0.721201 2.66167 -0.977665 -0.0431299 -0.205694 103 198 105
-1.17567 1.14621 2.53884 -0.641408 -0.0357018 -0.766369 103 198 105
-1.17348 0.91441 2.52766 -0.925004 0.0372613 0.378127 103 198 105
-1.19989 1.07476 2.52265 -0.763077 -0.0609308 -0.643429 103 198 105
-2.43509 1.94903 3.78736 0.704231 -0.696607 -0.137104 103 198 105
-2.36235 2.30356 3.62791 0.851889 -0.518609 -0.0730081 103 198 105
-2.36781 2.30777 3.63733 0.869777 -0.480573 -0.111971 103 198 105
-2.36572 2.30078 3.63847 0.849549 -0.509946 -0.134987 103 198 105
-2.43356 1.95289 3.78277 0.58763 -0.796073 -0.144769 103 198 105
-2.44486 1.96596 3.75543 0.229071 -0.950929 -0.207991 103 198 105
-2.41747 1.95985 3.75126 0.34159 -0.92187 -0.182952 103 198 105
-2.4329 1.95882 3.76094 0.248442 -0.946739 -0.204845 103 198 105
-2.4381 1.95431 3.75821 0.237483 -0.948292 -0.210579 103 198 105
-2.43864 1.96767 3.76312 0.242718 -0.948221 -0.204854 103 198 105
-2.41653 1.95615 3.76262 0.370547 -0.911506 -0.178469 103 198 105
-2.42771 1.96009 3.7685 0.464645 -0.870656 -0.16144 103 198 105
-2.43856 1.96162 3.77111 0.544238 -0.82565 -0.148683 103 198 105
-2.42643 1.95753 3.77184 0.457373 -0.874322 -0.162392 103 198 105
-2.01582 2.41567 3.99645 0.558928 -0.398656 -0.727099 103 198 105
-2.00567 2.36735 3.9887 0.540496 -0.463533 -0.702141 103 198 105
-2.1212 2.47151 3.60822 0.484153 -0.761853 -0.43032 103 198 105
-2.12792 2.48043 3.60246 0.619003 -0.692634 -0.370261 103 198 105
-2.43534 1.96286 3.76064 0.247114 -0.947228 -0.204188 103 198 105
-2.4752 2.33945 3.57039 0.846888 -0.522892 0.096771 103 198 105
-2.02345 2.34851 3.99168 0.490126 -0.35676 -0.795298 103 198 105
-2.41037 2.35604 3.57703 0.743833 -0.661437 0.0959855 103 198 105
-1.99277 2.43255 3.95789 0.56725 -0.332898 -0.753264 103 198 105
-2.12359 2.4536 3.63325 0.54193 -0.762414 -0.353607 103 198 105
-2.12193 2.45788 3.61236 0.520854 -0.727059 -0.447321 103 198 105
-2.11563 2.451 3.59387 0.697252 -0.594548 -0.40044 103 198 105
-2.41681 2.35598 3.57762 0.706528 -0.701436 0.0938406 103 198 105
-2.01519 2.34329 3.9838 0.556404 -0.400499 -0.728021 103 198 105
-2.03827 2.35075 3.98814 0.574193 -0.291185 -0.765188 103 198 105
-2.30456 1.95307 3.83961 0.965542 -0.0181521 -0.259613 103 198 105
-2.45219 1.94758 3.76476 0.416332 -0.865446 -0.278694 103 198 105
-2.43822 1.94685 3.78123 0.670387 -0.729036 -0.138155 103 198 105
-2.12812 2.30228 3.72607 0.647525 -0.69157 -0.320065 103 198 105
-2.12626 2.30986 3.72203 0.709195 -0.622036 -0.331835 103 198 105
-2.12968 2.30904 3.7483 0.752874 -0.558582 -0.348089 103 198 105
-2.13026 2.30228 3.75599 0.753195 -0.557819 -0.348618 103 198 105
-2.43367 1.94254 3.78341 0.707076 -0.693651 -0.137447 103 198 105
-2.12247 2.45635 3.57809 0.84101 -0.509607 -0.181668 103 198 105
-2.38414 2.29894 3.60796 0.894543 -0.442855 0.0606005 103 198 105
-2.37182 2.29999 3.62044 0.810949 -0.58202 -0.0601118 103 198 105
-2.15271 2.28054 3.73207 0.526183 -0.727643 -0.440075 103 198 105
-2.16838 2.28802 3.74012 0.516165 -0.674214 -0.528213 103 198 105
-2.37333 2.30661 3.61981 0.908162 -0.418008 0.0225941 103 198 105
-2.37437 2.30191 3.61077 0.914347 -0.401851 0.049854 103 198 105
-2.10212 2.47544 3.62166 0.813315 -0.35125 -0.463835 103 198 105
-2.08573 2.44727 3.52085 -0.367845 -0.593535 -0.715826 103 198 105
-2.12113 2.47779 3.5996 0.566839 -0.696283 -0.440321 103 198 105
-2.42793 1.95233 3.78268 0.595388 -0.790355 -0.144405 103 198 105
-2.43403 1.953 3.78548 0.642973 -0.753031 -0.139752 103 198 105
-2.43377 1.94768 3.78388 0.666509 -0.732458 -0.13882 103 198 105
-2.44682 1.95291 3.76672 0.36175 -0.887664 -0.284939 103 198 105
-2.44381 1.95131 3.76603 0.39898 -0.900669 -0.172079 103 198 105
-2.43978 1.9575 3.77316 0.558209 -0.816205 -0.149038 103 198 105
-2.43405 1.9532 3.78493 0.645057 -0.751203 -0.139987 103 198 105
-2.4404 1.95827 3.7573 0.224433 -0.951536 -0.21026 103 198 105
-2.44901 1.95676 3.7654 0.326734 -0.89399 -0.306639 103 198 105
-2.42808 1.95258 3.78272 0.586061 -0.79714 -0.145263 103 198 105
-2.42727 1.95689 3.7821 0.468078 -0.868744 -0.161822 103 198 105
-2.4248 1.95325 3.78141 0.578341 -0.802603 -0.146118 103 198 105
-2.1051 2.48648 3.60768 0.697487 -0.712929 0.0724218 103 198 105
-2.41795 1.95685 3.7787 0.421979 -0.852282 -0.309111 103 198 105
-2.40842 1.95093 3.78941 0.508875 -0.846524 -0.156345 103 198 105
-2.37439 2.31883 3.61635 0.848149 -0.523912 0.0784787 103 198 105
-2.35957 2.31253 3.63124 0.842089 -0.533973 0.0758947 103 198 105
-2.36683 2.313 3.64898 0.815241 -0.573843 0.0780078 103 198 105
-2.42157 1.96655 3.75005 0.344451 -0.921108 -0.181422 103 198 105
-2.37953 2.30062 3.60985 0.904045 -0.423873 0.0550873 103 198 105
-2.36875 2.32496 3.61375 0.86184 -0.501456 0.075986 103 198 105
-2.43518 1.95782 3.77689 0.506592 -0.848294 -0.154148 103 198 105
-2.41734 2.2971 3.64805 0.479573 -0.869502 -0.118215 103 198 105
-2.40036 2.28544 3.6744 0.129264 -0.929076 -0.346567 103 198 105
-2.3849 2.28274 3.67408 -0.0261478 -0.970263 -0.240636 103 198 105
-2.41539 2.30273 3.64599 0.277806 -0.959634 -0.0438884 103 198 105
-2.41145 2.30582 3.63762 0.408036 -0.912935 0.00754151 103 198 105
-2.38735 2.29588 3.61736 0.859572 -0.505258 0.0764829 103 198 105
-2.37305 2.28978 3.63069 0.828989 -0.401765 -0.389054 103 198 105
-2.36994 2.3206 3.60559 0.884432 -0.461967 0.0660746 103 198 105
-2.30587 1.99908 3.79497 0.561623 -0.774375 -0.291417 103 198 105
-2.15114 2.29001 3.73125 0.534187 -0.720011 -0.442977 103 198 105
-2.30521 1.99797 3.79517 0.509375 -0.794629 -0.330305 103 198 105
-2.46969 2.33494 3.57298 0.832483 -0.54541 0.0974735 103 198 105
-2.30536 2.00457 3.79671 0.544676 -0.787014 -0.28972 103 198 105
-2.29628 1.99496 3.81088 0.713894 -0.609353 -0.345028 103 198 105
-2.14239 2.28653 3.73063 0.589044 -0.688062 -0.423791 103 198 105
-2.29441 1.98734 3.80828 0.593679 -0.748641 -0.295096 103 198 105
-2.45592 2.27858 3.69559 0.429485 -0.894022 -0.127543 103 198 105
-2.44284 2.27525 3.69642 0.69061 -0.666037 -0.281873 103 198 105
-2.44231 2.27446 3.69763 0.549454 -0.82789 -0.11269 103 198 105
-2.43499 2.27341 3.69845 0.763316 -0.466714 -0.446683 103 198 105
-2.15875 2.29264 3.73142 0.535145 -0.719482 -0.44268 103 198 105
-2.41348 2.29293 3.64935 0.452611 -0.891471 0.0205553 103 198 105
-2.44992 2.29866 3.65849 0.490282 -0.864 -0.114574 103 198 105
-2.4429 2.28909 3.63103 0.490354 -0.863954 -0.114615 103 198 105
-2.46265 2.28836 3.66888 0.525459 -0.84973 0.0430379 103 198 105
-2.42154 2.05192 3.80585 0.739863 -0.671345 0.0435896 103 198 105
-2.41423 2.05157 3.80388 0.688368 -0.72432 0.0388549 103 198 105
-2.42198 2.05224 3.80665 0.715238 -0.697574 0.0427236 103 198 105
-2.42349 2.05801 3.80811 0.72018 -0.692689 0.0390289 103 198 105
-2.29085 1.97679 3.82966 0.880507 -0.298807 -0.367997 103 198 105
-2.41672 2.05804 3.80668 0.735641 -0.67579 0.0462672 103 198 105
-2.31006 1.99603 3.77659 0.324789 -0.846703 -0.421433 103 198 105
-2.31105 1.99223 3.7919 0.466577 -0.820657 -0.329891 103 198 105
-2.30628 1.99269 3.79869 0.547696 -0.767996 -0.331981 103 198 105
-2.29981 1.98636 3.80352 0.612049 -0.732596 -0.297825 103 198 105
-2.14336 2.28664 3.72857 0.535641 -0.703261 -0.467455 103 198 105
-2.30106 1.99337 3.8039 0.651558 -0.678961 -0.338355 103 198 105
-2.14315 2.28128 3.74381 0.626251 -0.616904 -0.476696 103 198 105
-2.29417 1.98117 3.80741 0.5847 -0.735857 -0.341525 103 198 105
-2.16615 2.29302 3.72332 0.555819 -0.733999 -0.390269 103 198 105
-2.1422 2.29379 3.72206 0.661937 -0.672629 -0.330772 103 198 105
-2.13578 2.29495 3.72911 0.68188 -0.634263 -0.364349 103 198 105
-2.14703 2.3031 3.72195 0.724597 -0.601939 -0.3356 103 198 105
-1.98627 2.40177 3.98484 0.534942 -0.480318 -0.695077 103 198 105
-1.99805 2.38739 3.98805 0.544263 -0.450745 -0.707535 103 198 105
-2.13692 2.28756 3.73473 0.713963 -0.615519 -0.333757 103 198 105
-2.13662 2.29114 3.74762 0.750206 -0.562609 -0.347365 103 198 105
-2.30027 1.9986 3.79896 0.522709 -0.784824 -0.332905 103 198 105
-2.42929 2.26855 3.70334 0.828351 -0.329707 -0.45291 103 198 105
-2.29639 2.00086 3.80721 0.595613 -0.728445 -0.338546 103 198 105
-2.2992 2.00962 3.79837 0.54788 -0.768312 -0.330944 103 198 105
-2.25633 1.99434 3.76993 -0.375552 -0.417919 -0.827227 103 198 105
-2.22514 1.9865 3.72035 0.303704 -0.202772 -0.930939 103 198 105
-1.99325 2.40767 3.99061 0.537623 -0.473995 -0.697345 103 198 105
-1.99365 2.40752 3.99118 0.538857 -0.470344 -0.698863 103 198 105
-2.00687 2.42806 3.98772 0.559804 -0.391146 -0.730496 103 198 105
-1.99965 2.4231 3.98156 0.551779 -0.42537 -0.717357 103 198 105
-2.47501 2.33395 3.57222 0.903738 -0.42191 0.0724564 103 198 105
-2.30176 1.99196 3.82929 0.697906 -0.701068 -0.146391 103 198 105
-2.41497 2.24035 3.55363 0.839406 0.234175 -0.490468 103 198 105
-2.44127 2.28781 3.6769 0.327069 -0.935362 -0.134622 103 198 105
-2.43901 2.28474 3.68185 0.270274 -0.936976 -0.221422 103 198 105
-2.43596 2.28018 3.68551 0.281742 -0.946081 -0.15985 103 198 105
-2.42459 2.27771 3.69487 0.812925 -0.0815567 -0.57663 103 198 105
-2.43381 2.27694 3.69083 0.410326 -0.901814 -0.135512 103 198 105
-2.43098 2.27345 3.69428 0.519257 -0.846553 -0.117136 103 198 105
-2.42653 2.28041 3.68757 0.30451 -0.938317 -0.163811 103 198 105
-2.39815 2.2614 3.68885 0.533422 -0.558988 -0.634817 103 198 105
-1.9967 2.40756 3.99474 0.539804 -0.468113 -0.69963 103 198 105
-2.13574 2.29502 3.72938 0.606155 -0.73306 -0.308543 103 198 105
-2.44806 2.29492 3.62696 0.483601 -0.867794 -0.114298 103 198 105
-2.44577 2.29254 3.67646 0.261317 -0.952227 -0.158044 103 198 105
-2.43992 2.28749 3.66546 0.517011 -0.855064 0.0395627 103 198 105
-2.42546 2.28183 3.67172 0.469015 -0.874753 -0.121787 103 198 105
-2.43377 2.29077 3.67422 0.695941 -0.264011 -0.667805 103 198 105
-2.41869 2.29227 3.68727 0.59112 -0.799257 -0.108463 103 198 105
-2.42823 2.28359 3.68174 0.23505 -0.938662 -0.252322 103 198 105
-2.39892 2.27323 3.67804 0.458038 -0.65533 -0.600619 103 198 105
-2.43048 2.29213 3.63442 0.486893 -0.865804 -0.115404 103 198 105
-2.11225 2.48419 3.59864 0.67971 -0.72986 0.07279 103 198 105
-2.09837 2.47116 3.66257 0.747509 -0.506323 -0.429962 103 198 105
-2.42017 2.2891 3.65356 0.484233 -0.874428 0.0298977 103 198 105
-2.45442 2.35456 3.5709 0.780391 -0.617032 0.101297 103 198 105
-2.45809 2.34154 3.57096 0.828547 -0.55125 0.0981466 103 198 105
-2.45761 1.95955 3.75801 0.224444 -0.951514 -0.210346 103 198 105
-2.44907 2.35024 3.57464 0.71166 -0.695811 0.096889 103 198 105
-2.45923 2.34266 3.57229 0.844254 -0.527226 0.0962701 103 198 105
-2.46912 2.33986 3.56998 0.814482 -0.571787 0.0983768 103 198 105
-2.46346 2.3406 3.57029 0.817753 -0.567072 0.0985346 103 198 105
-2.42568 2.29455 3.65531 0.482181 -0.868197 -0.117194 103 198 105
-2.42354 2.04866 3.81073 0.692743 -0.720087 0.0397763 103 198 105
-2.42682 2.05084 3.80446 0.786106 -0.615944 0.0514923 103 198 105
-2.29342 1.95479 3.83588 0.862411 -0.244127 -0.443452 103 198 105
-2.00131 2.38726 3.99096 0.545211 -0.447481 -0.708876 103 198 105
-2.31661 1.96895 3.82101 0.679683 -0.57163 -0.459642 103 198 105
-2.30726 1.96941 3.82367 0.777007 -0.478851 -0.40861 103 198 105
-2.32179 1.97909 3.82243 0.412904 -0.885837 -0.211666 103 198 105
-2.30878 1.95849 3.82817 0.922722 -0.114514 -0.368064 103 198 105
-2.39062 2.37086 3.55655 0.909235 -0.40965 0.0740208 103 198 105
-2.11243 2.48374 3.59422 0.808387 -0.272016 -0.522033 103 198 105
-2.37982 2.35872 3.5169 0.746777 -0.658224 0.0952104 103 198 105
-2.37913 2.35143 3.51715 0.736099 -0.670227 0.0946231 103 198 105
-2.39272 2.29962 3.64072 0.519687 -0.853431 0.0397685 103 198 105
-2.332 1.96926 3.82115 0.406312 -0.894 -0.188877 103 198 105
-2.33237 1.96718 3.82151 0.466862 -0.859146 -0.209542 103 198 105
-2.33618 1.97377 3.81629 0.456052 -0.84986 -0.26411 103 198 105
-2.42122 2.02183 3.77596 0.731746 -0.680054 0.0455393 103 198 105
-2.41964 2.02538 3.77166 0.769734 -0.636387 0.0502085 103 198 105
-2.44454 2.35197 3.57923 0.587723 -0.805481 0.0760442 103 198 105
-2.38415 2.35557 3.54092 0.812435 -0.575194 0.0954028 103 198 105
-2.26106 2.00466 3.83739 0.725551 -0.671731 -0.14951 103 198 105
-2.40715 2.29646 3.64555 0.435487 -0.90006 0.0156064 103 198 105
-2.01228 2.4431 3.9743 0.55071 -0.331372 -0.766101 103 198 105
-2.45753 2.34652 3.57944 0.833983 -0.543157 0.0972276 103 198 105
-2.42264 2.35538 3.57672 0.63954 -0.764016 0.0852556 103 198 105
-2.4342 2.35401 3.57277 0.610666 -0.787738 0.0809616 103 198 105
-2.01194 2.43378 3.99891 0.568001 -0.347688 -0.745982 103 198 105
-2.46344 2.33523 3.5723 0.808987 -0.579304 0.0997393 103 198 105
-2.13336 2.30211 3.72378 0.596723 -0.716415 -0.361484 103 198 105
-1.99582 2.42274 3.97796 0.550108 -0.430746 -0.715429 103 198 105
-2.43484 2.34953 3.57454 0.589457 -0.804226 0.0759062 103 198 105
-2.46379 2.3409 3.58248 0.828225 -0.551786 0.0978518 103 198 105
-2.43085 2.29062 3.64847 0.490765 -0.863517 -0.116138 103 198 105
-2.10487 2.31408 3.80696 0.711373 -0.617736 -0.335188 103 198 105
-1.98682 2.41854 3.97583 0.545518 -0.445777 -0.709713 103 198 105
-2.43476 2.29727 3.6288 0.489684 -0.864409 -0.114044 103 198 105
-2.07447 2.31825 3.83571 0.717785 -0.607523 -0.340147 103 198 105
-2.08978 2.31768 3.82411 0.706702 -0.623128 -0.335087 103 198 105
-2.09235 2.30323 3.84695 0.653963 -0.639569 -0.404083 103 198 105
-2.17387 2.29933 3.73857 0.605145 -0.609618 -0.512022 103 198 105
-2.07717 2.29283 3.91979 0.38704 -0.525864 -0.757408 103 198 105
-2.09393 2.29502 3.89932 0.223124 -0.632526 -0.741705 103 198 105
-2.11075 2.29836 3.88318 0.433488 -0.654964 -0.618959 103 198 105
-2.4225 2.01812 3.77947 0.685434 -0.727164 0.0375853 103 198 105
-2.08955 2.48671 3.61057 0.883256 -0.261381 -0.389279 103 198 105
-1.98934 2.3827 3.98564 0.538221 -0.469123 -0.700172 103 198 105
-2.005 2.39286 3.99443 0.542176 -0.460031 -0.703148 103 198 105
-2.39948 2.36301 3.56473 0.748262 -0.656746 0.0937512 103 198 105
-2.39722 2.29499 3.6422 0.808546 -0.495695 -0.317079 103 198 105
-2.3844 2.29336 3.6398 0.57852 -0.813846 0.0544942 103 198 105
-2.42302 2.01388 3.78156 0.671309 -0.740754 0.0250456 103 198 105
-2.42182 2.00842 3.78105 0.747909 -0.663586 0.016911 103 198 105
-2.0843 2.28485 3.97673 -0.0706136 -0.817266 -0.571917 103 198 105
-2.14061 2.3018 3.71933 0.68957 -0.647462 -0.324478 103 198 105
-2.36962 2.30372 3.62852 0.840868 -0.53971 -0.0406583 103 198 105
-2.36859 2.2974 3.63095 0.849394 -0.521408 -0.081627 103 198 105
-2.43455 2.04683 3.82158 0.817915 -0.553762 -0.156086 103 198 105
-2.41845 2.06398 3.80862 0.73555 -0.675828 0.0471367 103 198 105
-2.41194 2.05941 3.81035 0.68639 -0.726275 0.0373273 103 198 105
-2.11284 2.46214 3.60174 0.607822 -0.698829 -0.377081 103 198 105
-2.11253 2.46385 3.60556 0.421109 -0.779704 -0.463388 103 198 105
-2.41037 2.29885 3.64561 0.406439 -0.913664 0.00498655 103 198 105
-2.00928 2.35253 3.95926 0.505671 -0.555133 -0.660397 103 198 105
-2.13461 2.30201 3.72228 0.659856 -0.616557 -0.429474 103 198 105
-2.37026 2.3849 3.53712 0.299967 -0.953837 -0.0146512 103 198 105
-2.36693 2.37523 3.53386 0.870075 -0.485833 0.0832787 103 198 105
-2.35563 2.38407 3.5225 0.011749 -0.987689 -0.155988 103 198 105
-2.12919 2.29453 3.73229 0.610048 -0.68123 -0.404681 103 198 105
-2.12945 2.29708 3.73972 0.742494 -0.574235 -0.344901 103 198 105
-2.29365 2.00073 3.83056 0.692649 -0.706195 -0.146716 103 198 105
-2.43062 2.28932 3.6564 0.491544 -0.863057 -0.116264 103 198 105
-2.12177 2.4634 3.60498 0.444859 -0.831383 -0.333021 103 198 105
-2.40596 1.96642 3.74732 0.362999 -0.914596 -0.178176 103 198 105
-2.40535 1.95741 3.78025 0.537641 -0.793034 -0.286423 103 198 105
-2.42161 1.96222 3.77225 0.350693 -0.908868 -0.225774 103 198 105
-2.40455 1.9613 3.76482 0.503871 -0.849733 -0.155137 103 198 105
-2.00925 2.39209 3.99535 0.546984 -0.444423 -0.709434 103 198 105
-2.09106 2.48001 3.63372 0.819653 -0.332289 -0.466641 103 198 105
-2.30171 1.96307 3.83249 0.902051 0.0554979 -0.428047 103 198 105
-2.42656 2.28502 3.65733 0.502541 -0.863844 0.0350143 103 198 105
-2.40062 2.35038 3.56208 0.550767 -0.832076 0.0656142 103 198 105
-2.28593 1.97017 3.83975 0.71306 -0.700794 0.0208125 103 198 105
-2.29123 1.96522 3.83004 0.857731 -0.184926 -0.479687 103 198 105
-2.29925 1.97331 3.82613 0.859479 -0.0822211 -0.504515 103 198 105
-2.3677 2.36919 3.52197 0.831908 -0.549854 0.0747666 103 198 105
-2.37754 2.3637 3.52697 0.809817 -0.578627 0.0968881 103 198 105
-2.37125 2.36527 3.51423 0.746734 -0.658196 0.0957396 103 198 105
-2.37114 2.37189 3.51276 0.740238 -0.666087 0.0915248 103 198 105
-2.36995 2.35746 3.51334 0.734824 -0.671631 0.0945826 103 198 105
-2.30047 1.9811 3.80629 0.660524 -0.668255 -0.342262 103 198 105
-2.30028 1.978 3.82137 0.865332 -0.199804 -0.45965 103 198 105
-2.42275 1.99501 3.78975 0.655919 -0.754789 -0.0080215 103 198 105
-2.43682 2.00938 3.78531 0.535951 -0.844249 0.000495583 103 198 105
-2.43008 2.00943 3.78519 0.627052 -0.778602 0.0241931 103 198 105
-2.43274 2.00676 3.79196 0.444168 -0.895408 -0.0309744 103 198 105
-2.16947 2.27711 3.73751 0.452383 -0.73536 -0.504574 103 198 105
-2.42337 2.00477 3.7869 0.737307 -0.663356 -0.127818 103 198 105
-2.43026 2.00036 3.78987 0.589892 -0.80736 0.0140121 103 198 105
-2.42969 1.99519 3.7904 0.588524 -0.808379 0.0127265 103 198 105
-2.17875 2.27044 3.74313 -0.0809472 -0.730758 -0.67782 103 198 105
-2.40725 2.30258 3.64485 0.405849 -0.913923 0.00555548 103 198 105
-2.39707 2.3663 3.5712 0.792004 -0.603353 0.093245 103 198 105
-2.39948 2.36301 3.56473 0.748262 -0.656746 0.0937512 103 198 105
-2.39771 2.36689 3.57162 0.796353 -0.597162 0.0960122 103 198 105
-2.39884 2.35723 3.56501 0.766904 -0.635143 0.0919337 103 198 105
-2.40371 2.35586 3.57556 0.791122 -0.604148 0.0955561 103 198 105
-2.39722 2.36113 3.57248 0.808818 -0.580368 0.0947917 103 198 105
-2.40392 2.35599 3.54997 0.588605 -0.804783 0.0766103 103 198 105
-2.42298 1.99977 3.7889 0.714699 -0.687575 -0.128243 103 198 105
-1.16355 0.868722 2.496 -0.914439 -0.133584 0.382042 103 198 105
-1.04513 0.907319 2.30135 -0.987064 -0.00991614 -0.160017 103 198 105
-1.17418 1.0661 2.48166 -0.997153 -0.0120594 -0.0744309 103 198 105
-0.985857 1.08057 2.2526 -0.987592 -0.0633412 -0.143702 103 198 105
-1.03977 0.991645 2.26485 -0.986066 -0.0771536 -0.147382 103 198 105
-1.16869 1.01735 2.48008 -0.997246 -0.0106045 -0.0734078 103 198 105
-1.00771 1.06267 2.26216 -0.987616 -0.0510238 -0.14836 103 198 105
-1.15301 0.877503 2.49489 -0.913939 -0.124418 0.38631 103 198 105
-1.15303 0.877559 2.49489 -0.91441 -0.12529 0.384911 103 198 105
-1.16424 0.868226 2.49612 -0.912813 -0.136561 0.384868 103 198 105
-1.14813 0.782984 2.49878 -0.920476 0.0185755 0.390358 103 198 105
-1.18421 1.02472 2.51539 -0.915334 -0.033284 -0.401317 103 198 105
-1.15503 0.829435 2.50554 -0.989183 -0.0317574 0.14321 103 198 105
-1.16147 0.959927 2.49966 -0.915685 -0.101196 0.388948 103 198 105
-1.17686 1.00931 2.5283 -0.933588 -0.0965518 -0.345097 103 198 105
-1.16033 0.951616 2.48928 -0.920122 0.0662551 0.385988 103 198 105
-1.04869 0.948655 2.28045 -0.985057 -0.0884567 -0.147776 103 198 105
-1.16346 0.868788 2.4961 -0.91475 -0.134323 0.381037 103 198 105
-1.0402 0.889643 2.31172 -0.987109 -0.0415913 -0.154552 103 198 105
-1.04016 0.88964 2.31163 -0.987072 -0.0419319 -0.154693 103 198 105
-1.0319 1.00493 2.26262 -0.986466 -0.0719994 -0.14731 103 198 105
-1.17565 1.01632 2.50783 -0.972159 -0.0530664 -0.228234 103 198 105
-1.18591 1.10454 2.5107 -0.982579 -0.0805158 -0.167498 103 198 105
-1.15293 0.877448 2.49493 -0.918696 -0.129382 0.373172 103 198 105
-0.996391 1.03735 2.26487 -0.987774 -0.0507383 -0.147407 103 198 105
-1.17143 0.839604 2.49842 -0.983778 -0.11476 -0.137878 103 198 105
-1.18628 0.95822 2.54292 -0.929333 0.0692668 -0.362687 103 198 105
-1.16223 0.830091 2.48551 -0.987957 -0.0839845 -0.129953 103 198 105
-1.16043 1.06174 2.49624 -0.968641 0.2098 -0.133115 103 198 105
-1.16712 1.05818 2.47718 -0.997265 -0.00940011 -0.0733142 103 198 105
-1.02745 0.936078 2.28499 -0.985425 -0.0867984 -0.146298 103 198 105
-1.03133 0.902291 2.31324 -0.987341 -0.0168165 -0.157716 103 198 105
-1.04016 0.88964 2.31163 -0.987072 -0.0419319 -0.154693 103 198 105
-1.02273 0.998123 2.26132 -0.986745 -0.0694061 -0.146691 103 198 105
-1.17402 1.02578 2.4881 -0.997129 -0.00996958 -0.0750609 103 198 105
-1.04576 0.929842 2.28355 -0.985991 -0.0747194 -0.149128 103 198 105
-1.04649 0.926429 2.29988 -0.98623 -0.0676251 -0.150919 103 198 105
-0.987028 1.09089 2.27399 -0.984256 -0.109186 -0.13899 103 198 105
-1.17523 0.990301 2.5327 -0.936361 -0.114708 -0.331768 103 198 105
-1.04016 0.869859 2.30937 -0.986669 -0.0587778 -0.151753 103 198 105
-1.05163 0.875914 2.30395 -0.986833 -0.0485698 -0.154275 103 198 105
-1.05163 0.875914 2.30395 -0.986833 -0.0485698 -0.154275 103 198 105
-1.17492 1.10696 2.49387 -0.997035 -0.0203149 -0.0742263 103 198 105
-1.16305 0.809918 2.48596 -0.650041 -0.0188188 -0.759667 103 198 105
-1.16433 0.819638 2.51721 -0.997137 -0.0476433 -0.0587273 103 198 105
-1.17292 1.08535 2.48474 -0.997136 -0.0152274 -0.0740824 103 198 105
-1.21077 1.04491 2.53614 -0.959629 0.0153029 -0.280851 103 198 105
-1.15839 0.771707 2.50296 -0.920871 0.0318653 0.388563 103 198 105
-1.04016 0.88964 2.31163 -0.987072 -0.0419319 -0.154693 103 198 105
-1.01711 1.04087 2.2834 -0.984935 -0.0977748 -0.14263 103 198 105
-1.00843 1.03387 2.28063 -0.986266 -0.0795768 -0.144729 103 198 105
-1.00433 1.02476 2.26621 -0.987663 -0.0506972 -0.14816 103 198 105
-1.17166 0.848596 2.48854 -0.91439 -0.124375 0.385256 103 198 105
-1.18309 1.13503 2.49937 -0.996438 -0.0418174 -0.0732378 103 198 105
-1.15126 0.771439 2.50625 -0.92842 0.0953142 0.359099 103 198 105
-0.992137 1.06812 2.25578 -0.987582 -0.0608883 -0.144828 103 198 105
-1.00379 1.04531 2.27282 -0.986437 -0.079368 -0.143678 103 198 105
-1.16973 0.860246 2.50043 -0.911006 -0.155079 0.382123 103 198 105
-1.24204 0.918887 2.65956 -0.730582 -0.066473 -0.679582 103 198 105
-1.05175 0.875887 2.30386 -0.986778 -0.0483403 -0.154704 103 198 105
-1.2499 0.782072 2.63633 -0.915539 0.0231656 -0.401561 103 198 105
-1.2393 0.948714 2.67584 -0.634919 -0.0152835 -0.772428 103 198 105
-1.21639 1.09156 2.55085 -0.90377 0.0390183 -0.426237 103 198 105
-1.19065 1.09412 2.52237 -0.837342 -0.0719425 -0.541925 103 198 105
-1.16452 0.959237 2.47774 -0.920592 0.0181612 0.390103 103 198 105
-1.16912 0.968311 2.48467 -0.917944 -0.0674916 0.390927 103 198 105
-1.00417 1.07395 2.25218 -0.98738 -0.0618488 -0.145794 103 198 105
-1.14809 1.17819 2.49932 -0.941994 0.0602871 0.330172 103 198 105
-1.18063 1.1157 2.50269 -0.996287 -0.0431953 -0.074475 103 198 105
-1.18378 1.08564 2.51252 -0.979377 -0.0685443 -0.19006 103 198 105
-1.16772 1.14846 2.47223 -0.997169 -0.0112384 -0.0743491 103 198 105
-1.00771 1.06267 2.26216 -0.987616 -0.0510238 -0.14836 103 198 105
-1.02944 0.984593 2.26478 -0.985973 -0.0815443 -0.145626 103 198 105
-1.12875 1.16121 2.4833 -0.986268 0.131474 0.0999478 103 198 105
-1.14339 1.17024 2.49068 -0.966065 0.152912 0.208173 103 198 105
-1.16664 1.12867 2.47397 -0.997234 -0.0104333 -0.0735854 103 198 105
-1.1779 1.09639 2.50632 -0.995461 -0.0492031 -0.0814685 103 198 105
-1.17254 0.988954 2.53311 -0.930551 -0.0892069 -0.355129 103 198 105
-1.00857 1.06297 2.26278 -0.987596 -0.0503155 -0.148738 103 198 105
-1.05117 0.874984 2.3037 -0.986857 -0.0480865 -0.154276 103 198 105
-1.16615 1.07737 2.47965 -0.997233 -0.0145793 -0.0728938 103 198 105
-1.00771 1.06267 2.26216 -0.987616 -0.0510238 -0.14836 103 198 105
-1.19277 1.11355 2.52156 -0.809563 -0.0617581 -0.583776 103 198 105
-1.22115 1.13023 2.56984 -0.890487 -0.190884 -0.413033 103 198 105
-1.2397 0.859801 2.64244 -0.939575 -0.0093946 -0.342213 103 198 105
-1.19667 0.912595 2.65384 -0.822469 -0.509421 -0.253051 103 198 105
-1.21007 1.12466 2.57139 -0.889435 -0.141595 -0.434575 103 198 105
-1.191 1.05655 2.52726 -0.652258 0.0252312 -0.757577 103 198 105
-1.21858 0.938884 2.6543 -0.476278 -0.0115593 -0.879219 103 198 105
-1.2067 1.14772 2.55562 -0.626883 -0.133309 -0.767624 103 198 105
-1.18358 1.08515 2.5135 -0.969134 -0.0767619 -0.234279 103 198 105
-1.23041 0.831053 2.63629 -0.917646 -0.00498094 -0.397368 103 198 105
-1.0402 0.889643 2.31172 -0.987109 -0.0415913 -0.154552 103 198 105
-1.18166 0.926903 2.52836 -0.924809 0.0392768 -0.378398 103 198 105
-1.2264 1.11874 2.58588 -0.829019 -0.130686 -0.543736 103 198 105
-1.22431 1.10805 2.57084 -0.872495 -0.107209 -0.476717 103 198 105
-1.17663 1.03566 2.508 -0.917193 0.0113935 -0.39828 103 198 105
-1.177 0.948939 2.53526 -0.97422 0.06185 -0.216955 103 198 105
-1.1809 0.938708 2.55494 -0.970993 0.00828219 -0.238965 103 198 105
-1.17356 0.896976 2.5247 -0.921614 -0.0606276 0.383343 103 198 105
-1.17404 0.896601 2.52623 -0.920827 -0.0528867 0.386369 103 198 105
-1.17763 0.887937 2.5311 -0.920709 -0.0533014 0.386592 103 198 105
-1.17639 0.887284 2.51127 -0.922171 -0.133329 0.363075 103 198 105
-1.15601 0.781329 2.52021 -0.995744 -0.00754727 0.0918479 103 198 105
-1.21592 1.05546 2.55322 -0.980714 -0.05679 -0.187016 103 198 105
-1.24854 0.896519 2.65933 -0.764873 0.0327635 -0.643348 103 198 105
-1.24125 0.906736 2.67415 -0.715426 0.0129571 -0.698569 103 198 105
-1.00218 1.05495 2.25474 -0.98529 -0.0913725 -0.144413 103 198 105
-1.17167 0.959207 2.52018 -0.980611 0.119894 -0.155007 103 198 105
-1.18491 0.970268 2.56784 -0.996212 0.0222326 -0.0840716 103 198 105
-1.24157 0.959634 2.68836 -0.859198 0.191166 -0.47459 103 198 105
-1.24098 0.88313 2.63265 -0.876659 0.0198298 -0.480703 103 198 105
-1.2224 0.970689 2.64381 -0.798509 0.0500506 -0.599898 103 198 105
-1.2001 1.11575 2.55735 -0.642054 -0.168809 -0.747844 103 198 105
-1.17389 0.997562 2.50972 -0.986705 -0.0444353 -0.156328 103 198 105
-1.1743 0.940104 2.51968 -0.98814 0.09612 -0.119755 103 198 105
-1.24827 0.804577 2.63892 -0.924047 0.0161219 -0.38194 103 198 105
-1.19576 1.03395 2.5239 -0.707188 -0.0124989 -0.706915 103 198 105
-1.24897 0.848389 2.64966 -0.93915 0.00847381 -0.343404 103 198 105
-1.22361 1.0009 2.60469 -0.766818 -0.0409753 -0.640556 103 198 105
-1.20686 0.992365 2.58529 -0.965635 -0.0752186 -0.248777 103 198 105
-1.17232 0.979095 2.51361 -0.992882 0.0163969 -0.117972 103 198 105
-1.1783 1.05617 2.50398 -0.927106 -0.00963195 -0.374675 103 198 105
-1.2155 1.0012 2.55615 -0.995277 0.0372113 -0.0896675 103 198 105
-1.24029 0.83946 2.64127 -0.940056 0.00582319 -0.340971 103 198 105
-1.18229 1.00563 2.51475 -0.953538 -0.101385 -0.283701 103 198 105
-1.17166 0.799864 2.51094 -0.983889 -0.178686 -0.00580773 103 198 105
-1.16654 0.790529 2.53015 -0.99667 -0.0634637 -0.0512062 103 198 105
-1.18824 1.06586 2.51471 -0.925672 -0.0577176 -0.373899 103 198 105
-1.21404 1.03154 2.57566 -0.846905 0.0738255 -0.526594 103 198 105
-1.1574 1.15809 2.52205 -0.826807 -0.0033391 -0.562476 103 198 105
-1.22557 1.08663 2.57078 -0.830636 0.0611098 -0.553453 103 198 105
-1.24056 1.12168 2.56712 -0.25985 -0.0543581 -0.964118 103 198 105
-1.21395 1.01193 2.57876 -0.993056 0.0683225 -0.0957653 103 198 105
-1.17551 0.905287 2.5139 -0.960753 -0.0718368 0.267942 103 198 105
-1.15575 1.15018 2.50523 -0.890871 0.325704 0.316648 103 198 105
-1.1735 0.895767 2.50411 -0.923246 -0.132363 0.360688 103 198 105
-1.17431 0.838443 2.51352 -0.98467 0.174322 -0.00614285 103 198 105
-1.21603 1.07697 2.5519 -0.801877 0.0375933 -0.596306 103 198 105
-1.24826 1.07517 2.58827 -0.664275 -0.0271046 -0.746997 103 198 105
-1.22261 1.17825 2.59647 -0.899274 -0.0609661 -0.433116 103 198 105
-1.17567 1.14621 2.53884 -0.641408 -0.0357018 -0.766369 103 198 105
-1.17348 0.91441 2.52766 -0.925004 0.0372613 0.378127 103 198 105
-1.19989 1.07476 2.52265 -0.763077 -0.0609308 -0.643429 103 198 105
-1.17881 0.960198 2.55649 -0.978348 0.0628412 -0.197196 103 198 105
-1.04034 0.888438 2.30972 -0.98691 -0.0494585 -0.153504 103 198 105
-1.04034 0.888438 2.30972 -0.98691 -0.0494585 -0.153504 103 198 105
-1.16273 0.950177 2.51144 -0.99431 0.102711 0.0282393 103 198 105
-1.18649 0.979062 2.54148 -0.844024 -0.0516263 -0.533815 103 198 105
-1.16849 0.770889 2.52699 -0.982457 0.0664487 0.17425 103 198 105
-1.17363 0.969755 2.53701 -0.917737 0.0209376 -0.396637 103 198 105
-1.16378 0.886527 2.50011 -0.913387 -0.139038 0.382613 103 198 105
-1.22002 0.949292 2.64534 -0.990841 -0.0733007 -0.113404 103 198 105
-1.18847 0.948649 2.56322 -0.996504 0.0112474 -0.0827835 103 198 105
-1.21977 1.15542 2.56515 -0.796125 -0.139025 -0.588946 103 198 105
-1.16906 0.914291 2.50755 -0.952763 0.0378757 0.301345 103 198 105
-1.1536 1.1766 2.51972 -0.980514 0.133729 -0.143909 103 198 105
-1.1706 0.923075 2.53957 -0.920486 0.0986327 0.378122 103 198 105
-1.23443 1.02585 2.57543 -0.661403 -0.0395634 -0.748987 103 198 105
-1.17948 0.922922 2.51189 -0.92207 0.0868312 0.377156 103 198 105
-1.15105 1.16821 2.50849 -0.979227 0.142316 0.144431 103 198 105
-1.18567 0.99743 2.53825 -0.895837 -0.135137 -0.423338 103 198 105
-1.21566 1.02079 2.55292 -0.978861 -0.053305 -0.197458 103 198 105
-1.1894 1.04481 2.51292 -0.853084 0.00910535 -0.521694 103 198 105
-1.21178 1.02173 2.53315 -0.995875 -0.0257851 -0.0869906 103 198 105
-1.2238 1.0656 2.57021 -0.800588 -0.0468432 -0.597382 103 198 105
-1.17705 0.922853 2.64515 -0.872329 -0.439398 -0.21441 103 198 105
-1.20009 0.931308 2.65298 -0.990372 -0.0708768 -0.118913 103 198 105
-1.21921 1.17742 2.56481 -0.897894 -0.0964474 -0.429517 103 198 105
-1.2246 0.939646 2.66009 -0.996759 -0.0235825 -0.0769171 103 198 105
-1.16504 0.923837 2.49895 -0.978371 0.0339976 0.204045 103 198 105
-1.18366 0.987119 2.47178 -0.984823 0.0139793 -0.172998 103 198 105
-1.14971 0.904445 2.49042 -0.952152 -0.0944759 0.290655 103 198 105
-1.16927 0.988748 2.49932 -0.997095 0.00431807 -0.0760451 103 198 105
-1.15755 0.895603 2.49443 -0.934168 -0.112577 0.338611 103 198 105
-1.2457 1.04616 2.57764 -0.648307 0.0483195 -0.759844 103 198 105
-1.04011 0.941493 2.27735 -0.986026 -0.0758235 -0.148334 103 198 105
-0.992971 1.06818 2.25614 -0.98754 -0.0612152 -0.144973 103 198 105
-1.17353 1.04478 2.48949 -0.997129 -0.0160802 -0.0739936 103 198 105
-1.06317 0.862231 2.29617 -0.986784 -0.0438164 -0.156004 103 198 105
-1.05702 0.884516 2.31475 -0.986651 -0.0495338 -0.15513 103 198 105
-1.03765 0.971826 2.26712 -0.986421 -0.0705464 -0.148312 103 198 105
-1.04685 0.978658 2.26862 -0.985077 -0.0908056 -0.146213 103 198 105
-1.17279 1.04533 2.48408 -0.997144 -0.0162758 -0.073752 103 198 105
-1.04935 0.916376 2.31483 -0.986968 -0.0392321 -0.156059 103 198 105
-1.04789 0.89728 2.31643 -0.986895 -0.0431886 -0.155479 103 198 105
-1.16941 1.03608 2.47899 -0.997223 -0.0154802 -0.0728434 103 198 105
-0.976647 1.10519 2.28027 -0.985846 -0.0940251 -0.138803 103 198 105
-1.16056 0.981069 2.49849 -0.997248 -0.00154355 -0.0741272 103 198 105
-1.16051 0.933532 2.49067 -0.91877 0.101941 0.381404 103 198 105
-0.991265 1.07952 2.28318 -0.986133 -0.0806503 -0.145045 103 198 105
-1.17348 1.00675 2.48987 -0.996977 -0.0213056 -0.0747135 103 198 105
-1.17865 1.07723 2.50372 -0.996498 -0.0267386 -0.0792272 103 198 105
-1.16461 0.941734 2.49881 -0.95626 0.106473 0.272451 103 198 105
-1.13471 1.18076 2.48281 -0.920399 0.0256807 0.390137 103 198 105
-1.04266 0.96041 2.27492 -0.985157 -0.0892968 -0.146604 103 198 105
-2.99338 1.54263 3.68845 0.932126 -0.353719 0.0776175 103 198 105
-3.06327 1.50738 3.68091 0.841857 -0.530064 -0.101529 103 198 105
-3.05167 1.56071 3.66361 0.995895 -0.0717825 0.0551377 103 198 105
-3.03262 1.55323 3.67165 0.963775 -0.261719 0.0513979 103 198 105
-3.03744 1.55232 3.66947 0.97338 -0.227108 0.0308864 103 198 105
-3.00113 1.53922 3.68632 0.935702 -0.344074 0.0779461 103 198 105
-3.06055 1.57265 3.64442 0.932397 -0.216173 -0.289664 103 198 105
-3.05884 1.58218 3.64604 0.89675 -0.193763 -0.397863 103 198 105
-3.05659 1.57633 3.65173 0.917305 -0.282844 -0.280269 103 198 105
-3.05418 1.57072 3.66835 0.995345 -0.0729126 0.0630207 103 198 105
-3.10159 1.62646 3.61188 0.970299 0.198319 -0.138528 103 198 105
-3.04532 1.58328 3.67256 0.988244 -0.138693 -0.0643325 103 198 105
-3.03665 1.56767 3.68095 0.99627 -0.0641967 0.0576692 103 198 105
-2.99517 1.5503 3.68368 0.927055 -0.374609 -0.0154257 103 198 105
-3.0982 1.51627 3.72071 0.897073 -0.430481 0.0997328 103 198 105
-2.98372 1.64354 3.69689 0.869962 -0.484657 0.0909554 103 198 105
-3.02166 1.67316 3.6333 0.782688 -0.357508 -0.509498 103 198 105
-2.96829 1.67514 3.67247 0.924996 -0.371509 0.0797712 103 198 105
-2.88942 1.67342 3.77794 0.982502 -0.0395168 -0.182011 103 198 105
-2.89191 1.67921 3.77296 0.953896 -0.100608 -0.282773 103 198 105
-3.04897 1.57768 3.66298 0.978115 -0.189418 -0.0860954 103 198 105
-3.05183 1.57993 3.65836 0.931902 -0.216875 -0.290731 103 198 105
-3.10141 1.62717 3.61216 0.970528 0.219157 -0.100228 103 198 105
-2.96258 1.6585 3.73739 0.965711 -0.251077 0.0660469 103 198 105
-2.96864 1.65743 3.7496 0.980534 -0.18324 0.0705414 103 198 105
-2.9688 1.66163 3.74653 0.955854 -0.281952 0.0827423 103 198 105
-2.96715 1.66047 3.75663 0.981355 -0.179402 0.0689711 103 198 105
-2.95992 1.66122 3.75266 0.988203 -0.140731 0.0604087 103 198 105
-2.96581 1.65603 3.76195 0.974277 -0.213369 0.0725047 103 198 105
-2.91974 1.65864 3.58927 0.88514 -0.454614 0.099264 103 198 105
-2.96461 1.67141 3.65547 0.888095 -0.453673 0.0739487 103 198 105
-2.96909 1.6798 3.67009 0.936978 -0.339945 0.0806893 103 198 105
-2.97353 1.67774 3.66902 0.930286 -0.35784 0.0807371 103 198 105
-2.98087 1.61999 3.67664 0.485682 -0.825228 -0.288292 103 198 105
-2.92765 1.69904 3.75698 0.992739 -0.118763 -0.0191102 103 198 105
-2.98386 1.67646 3.72609 0.986966 0.110725 -0.11678 103 198 105
-2.97249 1.67237 3.73297 0.981237 0.104808 -0.161831 103 198 105
-2.96536 1.66833 3.75615 0.978661 -0.194184 0.0671875 103 198 105
-2.87175 1.65071 3.72768 0.783292 0.352764 -0.511871 103 198 105
-2.93539 1.68826 3.74502 0.988997 0.144725 -0.0306569 103 198 105
-2.88642 1.65835 3.72572 0.80835 0.300224 -0.506395 103 198 105
-2.93538 1.68943 3.7452 0.995251 -0.0870446 0.0435728 103 198 105
-2.93854 1.69507 3.74361 0.989747 0.139612 -0.030166 103 198 105
-2.9188 1.68893 3.75826 0.999364 0.0341671 -0.0102087 103 198 105
-2.92212 1.68569 3.75514 0.998612 0.0129056 -0.0510603 103 198 105
-2.86168 1.66448 3.74583 0.993803 -0.00951752 -0.110744 103 198 105
-2.96792 1.67528 3.68178 0.935149 -0.34511 0.0799724 103 198 105
-2.9331 1.77611 3.86691 -0.29677 -0.727818 -0.61823 103 198 105
-3.07618 1.55803 3.72759 0.936762 -0.338502 0.0888431 103 198 105
-3.08444 1.55441 3.72658 0.923248 -0.37446 0.0859829 103 198 105
-3.07796 1.55142 3.73688 0.889491 -0.447349 0.0931928 103 198 105
-3.08972 1.52023 3.74393 0.909296 -0.403943 0.100055 103 198 105
-3.10536 1.52657 3.72602 0.906113 -0.410836 0.100857 103 198 105
-3.13365 1.53113 3.75313 0.884369 -0.455848 0.100472 103 198 105
-2.51485 2.23402 3.72917 0.781736 -0.621894 -0.0462184 103 198 105
-3.03876 1.59924 3.67708 0.999309 0.02195 0.0300001 103 198 105
-3.04981 1.57398 3.67274 0.971536 -0.219523 0.0890347 103 198 105
-3.00902 1.58418 3.69178 0.959671 -0.281083 -0.00485483 103 198 105
-3.00253 1.5783 3.69755 0.968943 -0.235001 0.0769713 103 198 105
-2.99015 1.57925 3.71171 0.97473 -0.208723 0.0795986 103 198 105
-3.03106 1.60359 3.64616 0.65696 -0.752809 0.0410172 103 198 105
-3.04506 1.60815 3.67399 0.998303 0.0269088 -0.0516487 103 198 105
-2.95297 1.59723 3.54161 0.747337 -0.660167 0.0752825 103 198 105
-3.02127 1.61286 3.64401 0.607318 -0.794142 0.0224318 103 198 105
-3.02008 1.62046 3.64491 0.536591 -0.843789 -0.00951424 103 198 105
-3.0242 1.61943 3.66049 0.608978 -0.792852 0.0230379 103 198 105
-3.03163 1.61898 3.73976 0.589446 -0.807758 0.00898048 103 198 105
-2.95282 1.60471 3.53712 0.730152 -0.679508 0.0717413 103 198 105
-3.0135 1.58626 3.67969 0.949554 -0.209803 -0.23309 103 198 105
-2.89329 1.65664 3.5304 -0.416385 0.0545691 -0.907549 103 198 105
-3.04605 1.57657 3.67429 0.971063 -0.228105 0.0707383 103 198 105
-3.03997 1.57641 3.67188 0.955538 -0.261419 -0.136407 103 198 105
-3.04104 1.57851 3.67423 0.980053 -0.180659 -0.0828106 103 198 105
-3.03551 1.57917 3.67586 0.980579 -0.163922 -0.107681 103 198 105
-3.10388 1.53344 3.73888 0.877359 -0.469862 0.0973215 103 198 105
-3.10762 1.54234 3.73897 0.87464 -0.474731 0.0981618 103 198 105
-3.10679 1.54194 3.73745 0.858832 -0.50606 0.0794404 103 198 105
-3.09691 1.53792 3.7433 0.864202 -0.494068 0.0951426 103 198 105
-3.08931 1.53472 3.75082 0.889237 -0.449313 0.0858831 103 198 105
-3.09181 1.54728 3.69943 0.81433 -0.573588 0.0886771 103 198 105
-3.09538 1.54456 3.73552 0.883465 -0.458346 0.0969923 103 198 105
-3.08438 1.54007 3.73985 0.889818 -0.448536 0.0839036 103 198 105
-3.08092 1.54596 3.74952 0.903891 -0.41652 0.0974294 103 198 105
-3.03794 1.57267 3.67674 0.982406 -0.186437 -0.0108981 103 198 105
-3.08022 1.54922 3.69508 0.827028 -0.554768 0.0908726 103 198 105
-2.97544 1.64851 3.73547 0.885481 -0.455486 0.0919534 103 198 105
-2.97153 1.65468 3.73486 0.949508 -0.306688 0.066154 103 198 105
-2.96866 1.65338 3.74138 0.870857 -0.483381 0.0891638 103 198 105
-2.97282 1.64733 3.74237 0.868047 -0.488323 0.0896387 103 198 105
-2.96683 1.64852 3.74128 0.875044 -0.475143 0.0923957 103 198 105
-2.9672 1.6487 3.74185 0.866267 -0.491124 0.0915388 103 198 105
-2.96548 1.65096 3.75172 0.937825 -0.335462 0.0891554 103 198 105
-2.97363 1.65268 3.76078 0.954073 -0.294275 0.0561049 103 198 105
-2.91403 1.64863 3.54703 0.888762 -0.446883 0.101967 103 198 105
-2.96841 1.66165 3.67513 0.973223 -0.215808 0.0791397 103 198 105
-2.96666 1.6564 3.73552 0.96536 -0.252081 0.0673448 103 198 105
-2.98168 1.63453 3.69946 0.863894 -0.495002 0.0930543 103 198 105
-3.14295 1.52044 3.7584 0.856551 -0.507043 0.0960642 103 198 105
-2.54513 2.20245 3.78632 0.842898 -0.322933 -0.430392 103 198 105
-2.54694 2.1932 3.83016 0.852746 -0.518684 0.0615624 103 198 105
-2.5509 2.19131 3.82759 0.833876 -0.547398 0.0707514 103 198 105
-2.93244 1.61706 3.53352 0.93971 -0.327282 0.099149 103 198 105
-2.92589 1.61923 3.54233 0.932356 -0.347518 0.0997114 103 198 105
-2.57065 2.19381 3.89175 0.770668 -0.633532 0.0686186 103 198 105
-2.57117 2.19879 3.89065 0.78485 -0.619202 0.0245048 103 198 105
-2.99108 1.63539 3.66366 0.601346 -0.789289 -0.124117 103 198 105
-2.99183 1.63513 3.68423 0.820193 -0.565177 0.0886451 103 198 105
-2.96894 1.66643 3.67115 0.983581 -0.17808 0.0292472 103 198 105
-2.92773 1.69439 3.74842 0.993193 -0.106703 0.0467066 103 198 105
-2.9317 1.69196 3.74701 0.990234 -0.128999 0.0528852 103 198 105
-2.93055 1.70047 3.74667 0.980663 -0.184942 0.0640041 103 198 105
-2.93235 1.69149 3.74827 0.99174 0.120032 -0.0452155 103 198 105
-2.88665 1.68207 3.77709 0.93968 -0.236732 -0.246901 103 198 105
-2.98024 1.65665 3.72879 0.968589 -0.235719 0.0792003 103 198 105
-2.97763 1.64161 3.74433 0.861888 -0.498706 0.0918739 103 198 105
-2.97157 1.64278 3.74314 0.862496 -0.497713 0.0915498 103 198 105
-2.9807 1.64114 3.74206 0.869345 -0.486039 0.0894658 103 198 105
-2.98019 1.64097 3.76147 0.878018 -0.469703 0.0920008 103 198 105
-2.97231 1.65107 3.73883 0.871077 -0.482744 0.0904593 103 198 105
-2.9701 1.64961 3.6781 0.941154 -0.326463 0.087472 103 198 105
-2.96662 1.65198 3.69068 0.965815 -0.245727 0.0825776 103 198 105
-2.96536 1.6472 3.69215 0.962433 -0.258803 0.0821223 103 198 105
-2.97139 1.65007 3.69058 0.94457 -0.317669 0.0829094 103 198 105
-2.96656 1.65192 3.69081 0.964443 -0.250839 0.0832396 103 198 105
-2.97128 1.64999 3.69063 0.948239 -0.306649 0.0825136 103 198 105
-2.96794 1.657 3.68853 0.965168 -0.248023 0.0832751 103 198 105
-2.96657 1.6519 3.69099 0.96408 -0.252188 0.0833704 103 198 105
-2.96536 1.6472 3.69216 0.962423 -0.258849 0.0820937 103 198 105
-2.98526 1.64173 3.7385 0.870204 -0.484166 0.0912574 103 198 105
-2.98628 1.65535 3.73067 0.946946 -0.308903 0.0887231 103 198 105
-2.91912 1.64391 3.56007 0.893778 -0.436961 0.10112 103 198 105
-2.91957 1.71453 3.76073 0.924478 -0.131382 -0.357881 103 198 105
-2.90232 1.70655 3.7564 0.889609 -0.456096 -0.0238964 103 198 105
-2.90392 1.70745 3.76187 0.798802 -0.496197 -0.340154 103 198 105
-2.8944 1.70222 3.76583 0.73028 -0.522492 -0.440106 103 198 105
-2.89282 1.69535 3.77123 0.818866 -0.452336 -0.353342 103 198 105
-2.88247 1.69513 3.76948 0.702229 -0.687761 -0.184007 103 198 105
-2.91937 1.70224 3.75668 0.987578 0.112213 -0.109988 103 198 105
-2.88152 1.68958 3.77493 0.824335 -0.486301 -0.289799 103 198 105
-2.87767 1.69169 3.77731 0.708516 -0.631396 -0.315189 103 198 105
-2.86803 1.6908 3.77626 0.605133 -0.759858 -0.237549 103 198 105
-2.86842 1.69016 3.77655 0.584373 -0.782419 -0.215239 103 198 105
-2.98235 1.63891 3.6975 0.865094 -0.492776 0.0937279 103 198 105
-2.87098 1.68658 3.7838 0.718206 -0.61438 -0.326675 103 198 105
-2.86861 1.68585 3.78256 0.690564 -0.697605 -0.190968 103 198 105
-2.86225 1.68622 3.78428 0.602402 -0.760731 -0.241661 103 198 105
-2.86208 1.68628 3.78468 0.596562 -0.766925 -0.236513 103 198 105
-2.85128 1.68419 3.78105 0.617061 -0.743755 -0.257028 103 198 105
-2.85162 1.68425 3.78096 0.623796 -0.736087 -0.262781 103 198 105
-2.85894 1.67972 3.78292 0.649418 -0.706805 -0.280504 103 198 105
-2.85922 1.67969 3.78279 0.650227 -0.705007 -0.283145 103 198 105
-2.97779 1.67559 3.6676 0.923041 -0.37618 0.0805245 103 198 105
-2.96535 1.66914 3.67373 0.978533 -0.191718 0.0756077 103 198 105
-2.96047 1.66204 3.67998 0.999773 0.00753027 0.0199506 103 198 105
-2.87663 1.68584 3.78092 0.717955 -0.616181 -0.323824 103 198 105
-2.98843 1.64168 3.69585 0.873649 -0.477079 0.0955718 103 198 105
-2.99236 1.63944 3.69371 0.827187 -0.554729 0.0896514 103 198 105
-2.96493 1.66421 3.67724 0.999979 0.00641397 0.000814527 103 198 105
-2.98325 1.63497 3.75137 0.85802 -0.505494 0.0909779 103 198 105
-2.99651 1.6322 3.7458 0.870211 -0.484155 0.091249 103 198 105
-2.99016 1.62928 3.74587 0.675101 -0.736433 0.0436616 103 198 105
-2.93168 1.62811 3.55577 0.864979 -0.491663 0.100394 103 198 105
-2.92434 1.62699 3.54407 0.943001 -0.318289 0.0971672 103 198 105
-2.92789 1.63359 3.56415 0.881972 -0.460385 0.100848 103 198 105
-2.93086 1.62786 3.57372 0.878901 -0.466456 0.0997616 103 198 105
-2.97311 1.64294 3.67678 0.849901 -0.523291 0.0619274 103 198 105
-2.91485 1.70729 3.76228 0.893901 -0.318668 -0.315264 103 198 105
-2.97317 1.64679 3.69639 0.920205 -0.381906 0.0858484 103 198 105
-2.96421 1.63808 3.68721 0.86378 -0.495289 0.0925913 103 198 105
-2.97861 1.64122 3.69975 0.892633 -0.440609 0.095237 103 198 105
-2.97594 1.64477 3.73897 0.880562 -0.465065 0.0912366 103 198 105
-2.87662 1.69597 3.77268 0.574348 -0.793579 -0.200888 103 198 105
-2.92 1.70474 3.76262 0.936251 -0.248202 -0.248655 103 198 105
-2.92155 1.69614 3.76346 0.977249 -0.0871333 -0.19337 103 198 105
-2.91564 1.69467 3.76604 0.971274 -0.130621 -0.198912 103 198 105
-2.88862 1.68802 3.77228 0.860139 -0.398103 -0.318864 103 198 105
-2.85534 1.66809 3.76906 0.990617 -0.130318 0.041176 103 198 105
-2.86992 1.68069 3.78762 0.695144 -0.64625 -0.31486 103 198 105
-2.9817 1.64291 3.68123 0.816609 -0.570473 0.0878091 103 198 105
-2.88627 1.7022 3.76567 0.624197 -0.742785 -0.242176 103 198 105
-2.89507 1.70774 3.7624 0.681052 -0.679272 -0.273418 103 198 105
-2.89871 1.71628 3.75704 0.710945 -0.690719 -0.132153 103 198 105
-3.03546 1.59848 3.65664 0.751643 -0.613714 -0.241637 103 198 105
-2.9052 1.72032 3.74588 0.752813 -0.657914 0.0205126 103 198 105
-2.94937 1.81193 3.86157 -0.429256 -0.147966 -0.89098 103 198 105
